0.7,0.7,0.7,0.7,0.7,0.7,0.7,0.7,0.7,0.7,0.7,0.7,0.7,0.7,0.7,0.7,0.8,0.8,0.8,0.8,0.8,0.8,0.8,0.8,0.8,0.8,0.8,0.8,0.8,0.8,0.8,0.8,0.8,0.8,0.8,0.8,0.8,0.8,0.8,0.8,0.8,0.8,0.8,0.8,0.8,0.8,0.8,0.8,0.8,0.8,0.8,0.8,0.8,0.8,0.8,0.8,0.8,0.8,0.8,0.8,0.8,0.8,0.8,0.8,0.8,0.8,0.8,0.8,0.8,0.8,0.8,0.8,0.8,0.8,0.8,0.8,0.8,0.8,0.8,0.8,0.8,0.8,0.8,0.8,0.8,0.8,0.8,0.8,0.8,0.8,0.8,0.8,0.8,0.8,0.8,0.8,0.8,0.8,0.8,0.8,0.8,0.8,0.8,0.8,0.8,0.8,0.8,0.8,0.8,0.8,0.8,0.8,0.8,0.8,0.8,0.8,0.8,0.8,0.8,0.8,0.8,0.8,0.8,0.8,0.8,0.8,0.8,0.8,0.8,0.8,0.8,0.8,0.8,0.8,0.8,0.8,0.8,0.8,0.8,0.8,0.8,0.8,0.8,0.8,0.8,0.8,0.8,0.8,0.8,0.8,0.8,0.8,0.8,0.8,0.8,0.8,0.8,0.8,0.8,0.8,0.8,0.8,0.8,0.8,0.8,0.8,0.8,0.8,0.8,0.8,0.8,0.8,0.8,0.8,0.8,0.8,0.8,0.8,0.8,0.8,0.8,0.8,0.8,0.8,0.8,0.8,0.8,0.8,0.8,0.8,0.8,0.8,0.8,0.8,0.8,0.8,0.8,0.8,0.8,0.8,0.8,0.8,0.8,0.8,0.8,0.8,0.8,0.8,0.8,0.8,0.8,0.8,0.8,0.8,0.8,0.8,0.8,0.8,0.8,0.8,0.8,0.8,0.8,0.8,0.8,0.8,0.8,0.8,0,0,0,0,0,0,0,0,0,0,0,0,0,0,0,0,0,0,0,0,0,0,0,0,0,0,0,0,0,0,0,0,0,0,0,0.7,0.7,0.7,0.7,0.7,0.7,0.7,0.7,0.7,0.7,0.7,0.7,0.7,0.7,0.7,0.7,0.7,0.7,0.7,0.7,0,0,0,0.7,0.7,0,0,0,0,0,0,0.7,0.7,0.7,0.7,0.7,0.7,0.7,0.7,0.7,0.7,0.6,0.6,0.6,0.6,0.6,0.6,0.6,0.6,0.6,0.6,0.6,0.6,0.6,0,0,0.6,0.6,0.6,0.6,0.6,0.6,0.6,0.6,0.6,0,0,0.6,0.6,0.6,0.6,0.6,0,0,0,0,0.786343,0.786398,0.786452,0.786518,0.78659,0.786721,0.786855,0.787017,0.787186,0.787385,0.787588,0.787812,0.788039,0.788275,0.788515,0.788761,0.78901,0.789259,0.789512,0.789767,0.790019,0.790272,0.790523,0.790772,0.791015,0.791256,0.791496,0.791736,0.791978,0.792226,0.792473,0.792719,0.792973,0.793231,0.793492,0.793752,0.794023,0.794298,0.794585,0.794879,0.795185,0.795493,0.795816,0.796145,0.796493,0.796842,0.797202,0.797567,0.797952,0.798334,0.798736,0.79914,0.799559,0.799976,0.800413,0.800851,0.801293,0.801734,0.802184,0.802635,0.803084,0.803536,0.803984,0.804427,0.804855,0.805283,0.805706,0.806126,0.806548,0.806967,0.807382,0.807786,0.808187,0.808583,0.808973,0.809359,0.809745,0.810128,0.810505,0.810884,0.811263,0.811646,0.812027,0.812411,0.812795,0.813182,0.813575,0.813967,0.814358,0.814736,0.815117,0.815497,0.815878,0.816241,0.816606,0.816964,0.817318,0.817658,0.817997,0.81832,0.818639,0.818944,0.819248,0.819538,0.819823,0.8201,0.820374,0.820633,0.82089,0.821139,0.821386,0.821627,0.821866,0.822098,0.822327,0.822556,0.822779,0.822995,0.823208,0.823421,0.823629,0.823832,0.82403,0.824225,0.824417,0.824606,0.824788,0.824966,0.825138,0.825306,0.825467,0.825627,0.825777,0.825927,0.826071,0.826214,0.826347,0.826479,0.826604,0.826728,0.826845,0.826963,0.827073,0.827182,0.827284,0.827385,0.827481,0.827576,0.827665,0.827754,0.827839,0.827921,0.827999,0.828075,0.828147,0.828218,0.828283,0.828347,0.828408,0.828467,0.828523,0.828576,0.828627,0.828675,0.828722,0.828765,0.828805,0.828843,0.828878,0.828908,0.828936,0.82896,0.828982,0.829001,0.829017,0.82903,0.829041,0.829047,0.829052,0.829051,0.829048,0.829041,0.829033,0.829021,0.829007,0.828988,0.828967,0.828942,0.828916,0.828886,0.828856,0.82882,0.828784,0.828743,0.828701,0.828656,0.82861,0.82856,0.828511,0.828459,0.828406,0.82835,0.828293,0.828234,0.828175,0.828116,0.828057,0.827996,0.827935,0.827872,0.827809,0.827747,0.827687,0.827627,0.827567,0.827507,0.827447,0.827388,0.82733,0.827273,0.827216,0.827159,0.827103,0.827048,0.826994,0.82694,0.826886,0.826831,0.826775,0.82672,0.826665,0.82661,0.826555,0.826499,0.826444,0.826387,0.826329,0.826271,0.826211,0.826151,0.826089,0.826026,0.825961,0.825894,0.825825,0.825757,0.825686,0.825615,0.825542,0.825468,0.825392,0.825316,0.825239,0.82516,0.825078,0.824996,0.824911,0.824826,0.82474,0.824653,0.824564,0.824475,0.824386,0.824298,0.824211,nan,nan,nan,nan,nan,nan,nan,nan,nan,nan,nan,nan,nan,nan,nan,nan,nan,nan,nan,nan,nan,nan,nan,nan,nan
0.7,0.7,0.7,0.7,0.7,0.7,0.7,0.7,0.7,0.7,0.7,0.7,0.7,0.7,0.7,0.8,0.8,0.8,0.8,0.8,0.8,0.8,0.8,0.8,0.8,0.8,0.8,0.8,0.8,0.8,0.8,0.8,0.8,0.8,0.8,0.8,0.8,0.8,0.8,0.8,0.8,0.8,0.8,0.8,0.8,0.8,0.8,0.8,0.8,0.8,0.8,0.8,0.8,0.8,0.8,0.8,0.8,0.8,0.8,0.8,0.8,0.8,0.8,0.8,0.8,0.8,0.8,0.8,0.8,0.8,0.8,0.8,0.8,0.8,0.8,0.8,0.8,0.8,0.8,0.8,0.8,0.8,0.8,0.8,0.8,0.8,0.8,0.8,0.8,0.8,0.8,0.8,0.8,0.8,0.8,0.8,0.8,0.8,0.8,0.8,0.8,0.8,0.8,0.8,0.8,0.8,0.8,0.8,0.8,0.8,0.8,0.8,0.8,0.8,0.8,0.8,0.8,0.8,0.8,0.8,0.8,0.8,0.8,0.8,0.8,0.8,0.8,0.8,0.8,0.8,0.8,0.8,0.8,0.8,0.8,0.8,0.8,0.8,0.8,0.8,0.8,0.8,0.8,0.8,0.8,0.8,0.8,0.8,0.8,0.8,0.8,0.8,0.8,0.8,0.8,0.8,0.8,0.8,0.8,0.8,0.8,0.8,0.8,0.8,0.8,0.8,0.8,0.8,0.8,0.8,0.8,0.8,0.8,0.8,0.8,0.8,0.8,0.8,0.8,0.8,0.8,0.8,0.8,0.8,0.8,0.8,0.8,0.8,0.8,0.8,0.8,0.8,0.8,0.8,0.8,0.8,0.8,0.8,0.8,0.8,0.8,0.8,0.8,0.8,0.8,0.8,0.8,0.8,0.8,0.8,0.8,0.8,0.8,0.8,0.8,0.8,0.8,0.8,0.8,0.8,0.8,0.8,0.8,0.8,0.8,0.8,0.8,0.8,0,0,0,0,0,0,0,0,0,0,0,0,0,0,0,0,0,0,0,0,0,0,0,0,0,0,0,0,0,0,0,0,0,0,0,0.7,0.7,0.7,0.7,0.7,0.7,0.7,0.7,0.7,0.7,0.7,0.7,0.7,0.7,0.7,0.7,0.7,0.7,0.7,0.7,0,0,0,0.7,0.7,0.7,0,0,0,0,0,0.7,0.7,0.7,0.7,0.7,0.7,0.7,0.7,0.7,0.7,0.6,0.6,0.6,0.6,0,0,0,0,0.6,0.6,0.6,0.6,0.6,0,0,0.6,0.6,0.6,0.6,0.6,0.6,0.6,0.6,0.6,0.6,0.6,0.6,0.6,0.6,0.6,0.6,0.6,0.6,0.6,0.6,0.786422,0.786476,0.78653,0.786597,0.786668,0.7868,0.786934,0.787096,0.787264,0.787464,0.787667,0.787889,0.788114,0.78835,0.788589,0.788835,0.789084,0.789337,0.789591,0.789847,0.790099,0.790352,0.790603,0.790852,0.791095,0.791335,0.791574,0.791814,0.792056,0.792303,0.792551,0.792798,0.793051,0.793304,0.793563,0.793822,0.794091,0.794364,0.794649,0.79494,0.795243,0.795549,0.795867,0.79619,0.796535,0.796881,0.797239,0.7976,0.797984,0.798366,0.798765,0.799166,0.799581,0.799995,0.800424,0.800856,0.801299,0.801739,0.802184,0.802631,0.803078,0.803528,0.803975,0.804417,0.804843,0.80527,0.805691,0.806108,0.806526,0.806942,0.807356,0.807761,0.808165,0.808562,0.808952,0.809336,0.809721,0.810104,0.810482,0.810862,0.811243,0.811625,0.812006,0.812389,0.812771,0.813156,0.813546,0.813938,0.814332,0.814717,0.815105,0.815481,0.815857,0.816225,0.816596,0.816951,0.817303,0.817644,0.817984,0.818309,0.81863,0.818936,0.81924,0.81953,0.819815,0.820092,0.820365,0.820623,0.82088,0.821127,0.821372,0.821609,0.821845,0.822078,0.822306,0.822533,0.822754,0.822968,0.823177,0.823386,0.823592,0.823796,0.823992,0.824186,0.824376,0.824562,0.824742,0.824919,0.825089,0.825256,0.825415,0.825572,0.825722,0.82587,0.826014,0.826156,0.826288,0.826419,0.826543,0.826667,0.826782,0.826899,0.827009,0.827119,0.82722,0.827322,0.827418,0.827512,0.827602,0.827691,0.827775,0.827857,0.827934,0.828011,0.828084,0.828155,0.82822,0.828284,0.828345,0.828403,0.828459,0.828512,0.828562,0.828611,0.828657,0.828701,0.828741,0.828779,0.828813,0.828844,0.828872,0.828897,0.828919,0.828938,0.828954,0.828968,0.828979,0.828986,0.828991,0.82899,0.828987,0.828981,0.828973,0.828961,0.828948,0.828929,0.828909,0.828885,0.82886,0.82883,0.828801,0.828766,0.82873,0.828689,0.828648,0.828604,0.828558,0.828509,0.82846,0.828408,0.828355,0.8283,0.828244,0.828187,0.828129,0.82807,0.82801,0.82795,0.827889,0.827826,0.827764,0.827703,0.827643,0.827582,0.827522,0.827462,0.827403,0.827345,0.827287,0.82723,0.827173,0.827115,0.827059,0.827004,0.826949,0.826895,0.826841,0.826787,0.826732,0.826677,0.826623,0.826569,0.826513,0.826457,0.826401,0.826344,0.826285,0.826226,0.826165,0.826104,0.82604,0.825977,0.825911,0.825845,0.825776,0.825708,0.825636,0.825564,0.825491,0.825416,0.82534,0.825263,0.825184,0.825104,0.825021,0.824939,0.824854,0.824769,0.824682,0.824595,0.824506,0.824417,0.824328,0.824241,0.824155,nan,nan,nan,nan,nan,nan,nan,nan,nan,nan,nan,nan,nan,nan,nan,nan,nan,nan,nan,nan,nan,nan,nan,nan,nan
0.7,0.7,0.7,0.7,0.7,0.7,0.7,0.7,0.7,0.7,0.7,0.7,0.7,0.7,0.7,0.8,0.8,0.8,0.8,0.8,0.8,0.8,0.8,0.8,0.8,0.8,0.8,0.8,0.8,0.8,0.8,0.8,0.8,0.8,0.8,0.8,0.8,0.8,0.8,0.8,0.8,0.8,0.8,0.8,0.8,0.8,0.8,0.8,0.8,0.8,0.8,0.8,0.8,0.8,0.8,0.8,0.8,0.8,0.8,0.8,0.8,0.8,0.8,0.8,0.8,0.8,0.8,0.8,0.8,0.8,0.8,0.8,0.8,0.8,0.8,0.8,0.8,0.8,0.8,0.8,0.8,0.8,0.8,0.8,0.8,0.8,0.8,0.8,0.8,0.8,0.8,0.8,0.8,0.8,0.8,0.8,0.8,0.8,0.8,0.8,0.8,0.8,0.8,0.8,0.8,0.8,0.8,0.8,0.8,0.8,0.8,0.8,0.8,0.8,0.8,0.8,0.8,0.8,0.8,0.8,0.8,0.8,0.8,0.8,0.8,0.8,0.8,0.8,0.8,0.8,0.8,0.8,0.8,0.8,0.8,0.8,0.8,0.8,0.8,0.8,0.8,0.8,0.8,0.8,0.8,0.8,0.8,0.8,0.8,0.8,0.8,0.8,0.8,0.8,0.8,0.8,0.8,0.8,0.8,0.8,0.8,0.8,0.8,0.8,0.8,0.8,0.8,0.8,0.8,0.8,0.8,0.8,0.8,0.8,0.8,0.8,0.8,0.8,0.8,0.8,0.8,0.8,0.8,0.8,0.8,0.8,0.8,0.8,0.8,0.8,0.8,0.8,0.8,0.8,0.8,0.8,0.8,0.8,0.8,0.8,0.8,0.8,0.8,0.8,0.8,0.8,0.8,0.8,0.8,0.8,0.8,0.8,0.8,0.8,0.8,0.8,0.8,0.8,0.8,0.8,0.8,0.8,0.8,0.8,0.8,0.8,0.8,0.8,0,0,0,0,0,0,0,0,0,0,0,0,0,0,0,0,0,0,0,0,0,0,0,0,0,0,0,0,0,0,0,0,0,0,0.7,0.7,0.7,0.7,0.7,0.7,0.7,0.7,0.7,0,0,0.7,0.7,0.7,0.7,0.7,0.7,0.7,0.7,0.7,0.7,0.7,0,0,0.7,0.7,0.7,0,0,0,0,0,0.7,0.7,0.7,0.7,0.7,0.7,0.7,0.7,0.7,0.7,0.6,0.6,0.6,0,0,0,0,0,0.6,0.6,0.6,0.6,0.6,0,0,0.6,0.6,0.6,0.6,0.6,0.6,0.6,0.6,0.6,0.6,0.6,0.6,0.6,0.6,0,0.6,0.6,0.6,0.6,0.6,0.786502,0.786555,0.786609,0.786676,0.786748,0.786879,0.787013,0.787175,0.787343,0.787543,0.787745,0.787967,0.788192,0.788427,0.788667,0.788914,0.789164,0.789417,0.789672,0.789927,0.790179,0.79043,0.79068,0.790929,0.791172,0.791414,0.791654,0.791893,0.792135,0.79238,0.792628,0.792874,0.793124,0.793376,0.793633,0.79389,0.794159,0.79443,0.794713,0.795002,0.795302,0.795605,0.79592,0.796239,0.796581,0.796925,0.797279,0.797637,0.79802,0.7984,0.798796,0.799193,0.799605,0.800015,0.800439,0.800866,0.801305,0.801742,0.802184,0.802628,0.803073,0.803521,0.803967,0.804407,0.804832,0.805258,0.805678,0.806093,0.806507,0.806921,0.807333,0.807739,0.808143,0.808539,0.808928,0.809312,0.809698,0.81008,0.810458,0.810839,0.811219,0.811602,0.811984,0.812367,0.81275,0.813133,0.813519,0.813913,0.814308,0.814696,0.815088,0.815463,0.815837,0.816206,0.816579,0.816935,0.817288,0.81763,0.817972,0.818298,0.818619,0.818927,0.819231,0.819521,0.819805,0.820081,0.820353,0.820611,0.820867,0.821114,0.821357,0.821591,0.821826,0.822059,0.822287,0.82251,0.822729,0.822941,0.823148,0.823354,0.823557,0.823759,0.823954,0.824146,0.824334,0.824518,0.824697,0.824871,0.825039,0.825204,0.825362,0.825518,0.825666,0.825814,0.825957,0.826097,0.826228,0.826359,0.826483,0.826606,0.826721,0.826836,0.826946,0.827055,0.827157,0.827258,0.827354,0.827448,0.827538,0.827627,0.827711,0.827793,0.82787,0.827947,0.82802,0.828091,0.828157,0.828221,0.828281,0.82834,0.828395,0.828448,0.828498,0.828546,0.828593,0.828636,0.828677,0.828715,0.828749,0.82878,0.828808,0.828833,0.828856,0.828875,0.828892,0.828905,0.828916,0.828923,0.828929,0.828928,0.828927,0.82892,0.828913,0.828901,0.828889,0.828871,0.828852,0.828828,0.828803,0.828774,0.828746,0.828711,0.828676,0.828636,0.828597,0.828552,0.828507,0.828459,0.828411,0.828359,0.828306,0.828252,0.828197,0.82814,0.828083,0.828025,0.827965,0.827905,0.827844,0.827782,0.827721,0.82766,0.8276,0.827539,0.827479,0.827419,0.827361,0.827302,0.827244,0.827187,0.82713,0.827073,0.827016,0.826961,0.826906,0.826851,0.826797,0.826743,0.826688,0.826634,0.82658,0.826526,0.82647,0.826414,0.826356,0.826298,0.826239,0.82618,0.826118,0.826056,0.825991,0.825927,0.825861,0.825794,0.825726,0.825657,0.825585,0.825512,0.825438,0.825363,0.825286,0.825208,0.825128,0.825046,0.824962,0.824879,0.824794,0.824708,0.824621,0.824533,0.824444,0.824355,0.824266,0.82418,0.824095,nan,nan,nan,nan,nan,nan,nan,nan,nan,nan,nan,nan,nan,nan,nan,nan,nan,nan,nan,nan,nan,nan,nan,nan,nan
0.7,0.7,0.7,0.7,0.7,0.7,0.7,0.7,0.7,0.7,0.7,0.7,0.7,0.7,0.7,0.8,0.8,0.8,0.8,0.8,0.8,0.8,0.8,0.8,0.8,0.8,0.8,0.8,0.8,0.8,0.8,0.8,0.8,0.8,0.8,0.8,0.8,0.8,0.8,0.8,0.8,0.8,0.8,0.8,0.8,0.8,0.8,0.8,0.8,0.8,0.8,0.8,0.8,0.8,0.8,0.8,0.8,0.8,0.8,0.8,0.8,0.8,0.8,0.8,0.8,0.8,0.8,0.8,0.8,0.8,0.8,0.8,0.8,0.8,0.8,0.8,0.8,0.8,0.8,0.8,0.8,0.8,0.8,0.8,0.8,0.8,0.8,0.8,0.8,0.8,0.8,0.8,0.8,0.8,0.8,0.8,0.8,0.8,0.8,0.8,0.8,0.8,0.8,0.8,0.8,0.8,0.8,0.8,0.8,0.8,0.8,0.8,0.8,0.8,0.8,0.8,0.8,0.8,0.8,0.8,0.8,0.8,0.8,0.8,0.8,0.8,0.8,0.8,0.8,0.8,0.8,0.8,0.8,0.8,0.8,0.8,0.8,0.8,0.8,0.8,0.8,0.8,0.8,0.8,0.8,0.8,0.8,0.8,0.8,0.8,0.8,0.8,0.8,0.8,0.8,0.8,0.8,0.8,0.8,0.8,0.8,0.8,0.8,0.8,0.8,0.8,0.8,0.8,0.8,0.8,0.8,0.8,0.8,0.8,0.8,0.8,0.8,0.8,0.8,0.8,0.8,0.8,0.8,0.8,0.8,0.8,0.8,0.8,0.8,0.8,0.8,0.8,0.8,0.8,0.8,0.8,0.8,0.8,0.8,0.8,0.8,0.8,0.8,0.8,0.8,0.8,0.8,0.8,0.8,0.8,0.8,0.8,0.8,0.8,0.8,0.8,0.8,0.8,0.8,0.8,0.8,0.8,0.8,0.8,0.8,0.8,0.8,0.8,0,0,0,0,0,0,0,0,0,0,0,0,0,0,0,0,0,0,0,0,0,0,0,0,0,0,0,0,0,0,0,0,0,0.7,0.7,0.7,0.7,0.7,0.7,0.7,0.7,0.7,0.7,0,0,0.7,0.7,0.7,0.7,0.7,0.7,0.7,0.7,0.7,0.7,0.7,0.7,0.7,0.7,0.7,0,0,0,0,0,0,0.7,0.7,0.7,0.7,0.7,0.7,0.7,0.7,0.7,0.7,0.7,0.6,0.6,0,0,0,0,0,0.6,0.6,0.6,0.6,0.6,0,0,0.6,0.6,0.6,0.6,0.6,0.6,0.6,0.6,0.6,0.6,0.6,0.6,0.6,0.6,0,0.6,0.6,0.6,0.6,0.6,0.786582,0.786634,0.786687,0.786755,0.786828,0.786959,0.787093,0.787255,0.787423,0.787623,0.787825,0.788047,0.788272,0.788507,0.788748,0.788998,0.789249,0.7895,0.789753,0.790008,0.790259,0.790506,0.790754,0.791003,0.791248,0.791493,0.791734,0.791973,0.792214,0.792459,0.792704,0.792947,0.793195,0.793445,0.7937,0.793956,0.794225,0.794497,0.794778,0.795065,0.795362,0.79566,0.795974,0.796293,0.796631,0.796972,0.797323,0.797678,0.798058,0.798435,0.798827,0.799221,0.79963,0.800037,0.800458,0.800881,0.801313,0.801743,0.802183,0.802625,0.80307,0.803516,0.803958,0.804395,0.804821,0.805246,0.805667,0.80608,0.806492,0.806903,0.807314,0.807718,0.808122,0.808516,0.808903,0.809287,0.809675,0.810058,0.810434,0.810813,0.811193,0.811578,0.811962,0.812346,0.81273,0.813112,0.813497,0.81389,0.814286,0.814674,0.815066,0.815441,0.815816,0.816184,0.816556,0.816916,0.817273,0.817616,0.817958,0.818285,0.818607,0.818916,0.819222,0.81951,0.819794,0.820067,0.820338,0.820596,0.820853,0.821099,0.821342,0.821575,0.821809,0.822042,0.822268,0.822488,0.822704,0.822916,0.823121,0.823325,0.823525,0.823722,0.823914,0.824106,0.824293,0.824475,0.824651,0.824823,0.824989,0.825151,0.825308,0.825462,0.825611,0.825759,0.825899,0.826038,0.826169,0.826299,0.826422,0.826545,0.826659,0.826774,0.826883,0.82699,0.827092,0.827194,0.82729,0.827384,0.827475,0.827564,0.827648,0.82773,0.827807,0.827884,0.827956,0.828026,0.828092,0.828156,0.828217,0.828276,0.828331,0.828384,0.828434,0.828482,0.828528,0.828571,0.828614,0.828651,0.828684,0.828714,0.828743,0.828769,0.828792,0.828812,0.828828,0.828841,0.828853,0.82886,0.828865,0.828866,0.828866,0.82886,0.828853,0.828841,0.828829,0.828812,0.828794,0.828771,0.828748,0.828718,0.82869,0.828656,0.828622,0.828584,0.828545,0.828502,0.828457,0.828411,0.828363,0.828311,0.828259,0.828205,0.828151,0.828095,0.828039,0.82798,0.827921,0.827861,0.827802,0.827741,0.82768,0.827619,0.827559,0.827498,0.827437,0.827378,0.827319,0.82726,0.827202,0.827145,0.827088,0.827031,0.826975,0.826919,0.826864,0.826809,0.826754,0.826699,0.826644,0.826589,0.826535,0.82648,0.826424,0.826368,0.82631,0.826251,0.826192,0.826133,0.826069,0.826006,0.825941,0.825876,0.82581,0.825743,0.825673,0.825604,0.825531,0.825458,0.825384,0.825308,0.82523,0.825151,0.82507,0.824987,0.824901,0.824817,0.824731,0.824644,0.824556,0.824468,0.824379,0.824289,0.824199,0.824113,0.82403,nan,nan,nan,nan,nan,nan,nan,nan,nan,nan,nan,nan,nan,nan,nan,nan,nan,nan,nan,nan,nan,nan,nan,nan,nan
0.7,0.7,0.7,0.7,0.7,0.7,0.7,0.7,0.7,0.7,0.7,0.7,0.7,0.7,0.7,0.8,0.8,0.8,0.8,0.8,0.8,0.8,0.8,0.8,0.8,0.8,0.8,0.8,0.8,0.8,0.8,0.8,0.8,0.8,0.8,0.8,0.8,0.8,0.8,0.8,0.8,0.8,0.8,0.8,0.8,0.8,0.8,0.8,0.8,0.8,0.8,0.8,0.8,0.8,0.8,0.8,0.8,0.8,0.8,0.8,0.8,0.8,0.8,0.8,0.8,0.8,0.8,0.8,0.8,0.8,0.8,0.8,0.8,0.8,0.8,0.8,0.8,0.8,0.8,0.8,0.8,0.8,0.8,0.8,0.8,0.8,0.8,0.8,0.8,0.8,0.8,0.8,0.8,0.8,0.8,0.8,0.8,0.8,0.8,0.8,0.8,0.8,0.8,0.8,0.8,0.8,0.8,0.8,0.8,0.8,0.8,0.8,0.8,0.8,0.8,0.8,0.8,0.8,0.8,0.8,0.8,0.8,0.8,0.8,0.8,0.8,0.8,0.8,0.8,0.8,0.8,0.8,0.8,0.8,0.8,0.8,0.8,0.8,0.8,0.8,0.8,0.8,0.8,0.8,0.8,0.8,0.8,0.8,0.8,0.8,0.8,0.8,0.8,0.8,0.8,0.8,0.8,0.8,0.8,0.8,0.8,0.8,0.8,0.8,0.8,0.8,0.8,0.8,0.8,0.8,0.8,0.8,0.8,0.8,0.8,0.8,0.8,0.8,0.8,0.8,0.8,0.8,0.8,0.8,0.8,0.8,0.8,0.8,0.8,0.8,0.8,0.8,0.8,0.8,0.8,0.8,0.8,0.8,0.8,0.8,0.8,0.8,0.8,0.8,0.8,0.8,0.8,0.8,0.8,0.8,0.8,0.8,0.8,0.8,0.8,0.8,0.8,0.8,0.8,0.8,0.8,0.8,0.8,0.8,0.8,0.8,0.8,0.8,0,0,0,0,0,0,0,0,0,0,0,0,0,0,0,0,0,0,0,0,0,0,0,0,0,0,0,0,0,0,0,0.7,0.7,0.7,0.7,0.7,0.7,0.7,0.7,0.7,0.7,0.7,0.7,0,0,0.7,0.7,0.7,0.7,0.7,0.7,0.7,0.7,0.7,0.7,0.7,0.7,0.7,0.7,0.7,0,0,0,0,0,0.7,0.7,0.7,0.7,0.7,0.7,0.7,0.7,0.7,0.7,0.7,0.7,0.6,0,0,0,0,0,0.6,0.6,0.6,0.6,0.6,0.6,0.6,0.6,0.6,0.6,0.6,0.6,0.6,0.6,0.6,0.6,0.6,0.6,0.6,0.6,0.6,0.6,0,0.6,0.6,0.6,0.6,0.6,0.786663,0.786715,0.786767,0.786835,0.786909,0.78704,0.787174,0.787335,0.787504,0.787703,0.787906,0.788127,0.788353,0.78859,0.788832,0.789082,0.789332,0.789582,0.789834,0.790088,0.790337,0.790586,0.790835,0.791084,0.791328,0.791571,0.791812,0.79205,0.79229,0.792535,0.79278,0.793023,0.79327,0.793519,0.793773,0.794027,0.794295,0.794566,0.794844,0.795127,0.795422,0.79572,0.796032,0.796348,0.796684,0.797022,0.79737,0.797722,0.798096,0.798468,0.798857,0.799248,0.799656,0.800061,0.80048,0.8009,0.801327,0.801753,0.802189,0.802627,0.803069,0.803512,0.803951,0.804387,0.804813,0.805237,0.805655,0.806066,0.806476,0.806884,0.807289,0.80769,0.808092,0.808487,0.808876,0.80926,0.809644,0.810027,0.810405,0.810785,0.811164,0.811547,0.81193,0.812316,0.812703,0.813085,0.81347,0.813864,0.81426,0.81465,0.815042,0.815418,0.815794,0.816162,0.816533,0.816891,0.817247,0.817593,0.817937,0.818266,0.81859,0.8189,0.819207,0.819496,0.819779,0.820052,0.820322,0.820579,0.820835,0.821082,0.821325,0.821558,0.821791,0.82202,0.822244,0.822464,0.822679,0.822888,0.823093,0.823294,0.823493,0.823689,0.823879,0.824068,0.824251,0.82443,0.824605,0.824776,0.82494,0.825101,0.825257,0.82541,0.825557,0.825705,0.825844,0.825982,0.826111,0.82624,0.826363,0.826485,0.826599,0.826714,0.826821,0.826928,0.82703,0.827132,0.827227,0.827321,0.827411,0.8275,0.827585,0.827667,0.827745,0.827821,0.827892,0.827962,0.828028,0.828093,0.828153,0.828212,0.828268,0.82832,0.82837,0.828418,0.828462,0.828506,0.828547,0.828585,0.828618,0.828649,0.828677,0.828703,0.828727,0.828747,0.828764,0.828777,0.828789,0.828796,0.828802,0.828803,0.828803,0.828798,0.828792,0.828781,0.828769,0.828753,0.828736,0.828714,0.828691,0.828663,0.828635,0.828602,0.828569,0.828532,0.828495,0.828452,0.828409,0.828363,0.828316,0.828266,0.828214,0.828161,0.828107,0.828052,0.827996,0.827938,0.827879,0.827819,0.82776,0.827699,0.827639,0.827578,0.827517,0.827456,0.827396,0.827336,0.827278,0.827219,0.82716,0.827103,0.827046,0.826989,0.826933,0.826877,0.826821,0.826765,0.82671,0.826655,0.8266,0.826545,0.82649,0.826435,0.826378,0.826321,0.826263,0.826204,0.826144,0.826085,0.82602,0.825955,0.82589,0.825825,0.825758,0.825689,0.825619,0.825548,0.825476,0.825402,0.825328,0.825252,0.825173,0.825092,0.825009,0.824925,0.824839,0.824754,0.824666,0.824577,0.824488,0.824399,0.824309,0.824219,0.82413,0.824044,0.823959,0.823871,nan,nan,nan,nan,nan,nan,nan,nan,nan,nan,nan,nan,nan,nan,nan,nan,nan,nan,nan,nan,nan,nan,nan,nan
0.7,0.7,0.7,0.7,0.7,0.7,0.7,0.7,0.7,0.7,0.7,0.7,0.7,0.7,0.7,0.8,0.8,0.8,0.8,0.8,0.8,0.8,0.8,0.8,0.8,0.8,0.8,0.8,0.8,0.8,0.8,0.8,0.8,0.8,0.8,0.8,0.8,0.8,0.8,0.8,0.8,0.8,0.8,0.8,0.8,0.8,0.8,0.8,0.8,0.8,0.8,0.8,0.8,0.8,0.8,0.8,0.8,0.8,0.8,0.8,0.8,0.8,0.8,0.8,0.8,0.8,0.8,0.8,0.8,0.8,0.8,0.8,0.8,0.8,0.8,0.8,0.8,0.8,0.8,0.8,0.8,0.8,0.8,0.8,0.8,0.8,0.8,0.8,0.8,0.8,0.8,0.8,0.8,0.8,0.8,0.8,0.8,0.8,0.8,0.8,0.8,0.8,0.8,0.8,0.8,0.8,0.8,0.8,0.8,0.8,0.8,0.8,0.8,0.8,0.8,0.8,0.8,0.8,0.8,0.8,0.8,0.8,0.8,0.8,0.8,0.8,0.8,0.8,0.8,0.8,0.8,0.8,0.8,0.8,0.8,0.8,0.8,0.8,0.8,0.8,0.8,0.8,0.8,0.8,0.8,0.8,0.8,0.8,0.8,0.8,0.8,0.8,0.8,0.8,0.8,0.8,0.8,0.8,0.8,0.8,0.8,0.8,0.8,0.8,0.8,0.8,0.8,0.8,0.8,0.8,0.8,0.8,0.8,0.8,0.8,0.8,0.8,0.8,0.8,0.8,0.8,0.8,0.8,0.8,0.8,0.8,0.8,0.8,0.8,0.8,0.8,0.8,0.8,0.8,0.8,0.8,0.8,0.8,0.8,0.8,0.8,0.8,0.8,0.8,0.8,0.8,0.8,0.8,0.8,0.8,0.8,0.8,0.8,0.8,0.8,0.8,0.8,0.8,0.8,0.8,0.8,0.8,0.8,0.8,0.8,0.8,0.8,0.8,0,0,0,0,0,0,0,0,0,0,0,0,0,0,0,0,0,0,0,0,0,0,0,0,0,0,0,0,0,0,0,0.7,0.7,0.7,0.7,0.7,0.7,0.7,0.7,0.7,0.7,0.7,0.7,0,0,0.7,0.7,0.7,0.7,0.7,0.7,0.7,0.7,0.7,0.7,0.7,0.7,0.7,0.7,0.7,0,0,0,0,0,0.7,0.7,0.7,0.7,0.7,0.7,0.7,0.7,0.7,0.7,0.7,0.7,0,0,0,0,0,0,0.6,0.6,0.6,0.6,0.6,0.6,0.6,0.6,0.6,0.6,0.6,0.6,0.6,0.6,0.6,0.6,0.6,0.6,0.6,0.6,0.6,0.6,0.6,0.6,0.6,0.6,0.6,0.6,0.786743,0.786795,0.786848,0.786916,0.786989,0.78712,0.787254,0.787415,0.787584,0.787783,0.787986,0.788207,0.788434,0.788673,0.788916,0.789164,0.789414,0.789664,0.789915,0.790165,0.790414,0.790667,0.790918,0.791167,0.791409,0.791649,0.791887,0.792126,0.792365,0.792609,0.792855,0.793099,0.793346,0.793594,0.793846,0.7941,0.794365,0.794635,0.794909,0.795188,0.795482,0.79578,0.79609,0.796404,0.796737,0.797072,0.797417,0.797766,0.798134,0.7985,0.798886,0.799275,0.799681,0.800086,0.800502,0.800919,0.801343,0.801766,0.802196,0.80263,0.803069,0.80351,0.803946,0.80438,0.804805,0.805229,0.805643,0.806052,0.80646,0.806864,0.807262,0.807659,0.808059,0.808456,0.80885,0.809232,0.809611,0.809994,0.810376,0.810757,0.811136,0.811516,0.811894,0.812282,0.812673,0.813057,0.813442,0.813837,0.814234,0.814625,0.815018,0.815395,0.815771,0.816139,0.816509,0.816865,0.817218,0.817567,0.817914,0.818245,0.818571,0.818883,0.819192,0.819481,0.819764,0.820037,0.820306,0.820562,0.820816,0.821064,0.821307,0.821541,0.821773,0.821998,0.822219,0.822439,0.822653,0.822861,0.823063,0.823264,0.823463,0.823658,0.823846,0.82403,0.82421,0.824386,0.824559,0.82473,0.824894,0.825053,0.825207,0.825359,0.825505,0.825652,0.82579,0.825926,0.826055,0.826183,0.826305,0.826426,0.82654,0.826654,0.826761,0.826868,0.826969,0.82707,0.827165,0.827259,0.827348,0.827437,0.827522,0.827606,0.827683,0.827759,0.82783,0.827899,0.827965,0.828029,0.82809,0.82815,0.828205,0.828257,0.828307,0.828354,0.828398,0.82844,0.828481,0.828518,0.828553,0.828584,0.828612,0.828637,0.828661,0.828681,0.8287,0.828714,0.828726,0.828733,0.828738,0.82874,0.828741,0.828736,0.828731,0.828721,0.82871,0.828695,0.828679,0.828658,0.828636,0.828609,0.828581,0.82855,0.828518,0.828481,0.828444,0.828403,0.828361,0.828316,0.82827,0.828221,0.82817,0.828118,0.828065,0.82801,0.827954,0.827897,0.827838,0.827778,0.827718,0.827658,0.827597,0.827537,0.827476,0.827415,0.827355,0.827295,0.827237,0.827178,0.827119,0.827062,0.827004,0.826948,0.826891,0.826835,0.826778,0.826722,0.826667,0.826612,0.826557,0.826502,0.826446,0.82639,0.826332,0.826275,0.826217,0.826158,0.826097,0.826037,0.825971,0.825906,0.82584,0.825774,0.825705,0.825636,0.825564,0.825492,0.82542,0.825346,0.825272,0.825195,0.825115,0.825033,0.824948,0.824863,0.824778,0.824691,0.824601,0.82451,0.82442,0.82433,0.824239,0.824149,0.82406,0.823974,0.823888,0.823796,nan,nan,nan,nan,nan,nan,nan,nan,nan,nan,nan,nan,nan,nan,nan,nan,nan,nan,nan,nan,nan,nan,nan,nan
0.7,0.7,0.7,0.7,0.7,0.7,0.7,0.7,0.7,0.7,0.7,0.7,0.7,0.7,0.7,0.8,0.8,0.8,0.8,0.8,0.8,0.8,0.8,0.8,0.8,0.8,0.8,0.8,0.8,0.8,0.8,0.8,0.8,0.8,0.8,0.8,0.8,0.8,0.8,0.8,0.8,0.8,0.8,0.8,0.8,0.8,0.8,0.8,0.8,0.8,0.8,0.8,0.8,0.8,0.8,0.8,0.8,0.8,0.8,0.8,0.8,0.8,0.8,0.8,0.8,0.8,0.8,0.8,0.8,0.8,0.8,0.8,0.8,0.8,0.8,0.8,0.8,0.8,0.8,0.8,0.8,0.8,0.8,0.8,0.8,0.8,0.8,0.8,0.8,0.8,0.8,0.8,0.8,0.8,0.8,0.8,0.8,0.8,0.8,0.8,0.8,0.8,0.8,0.8,0.8,0.8,0.8,0.8,0.8,0.8,0.8,0.8,0.8,0.8,0.8,0.8,0.8,0.8,0.8,0.8,0.8,0.8,0.8,0.8,0.8,0.8,0.8,0.8,0.8,0.8,0.8,0.8,0.8,0.8,0.8,0.8,0.8,0.8,0.8,0.8,0.8,0.8,0.8,0.8,0.8,0.8,0.8,0.8,0.8,0.8,0.8,0.8,0.8,0.8,0.8,0.8,0.8,0.8,0.8,0.8,0.8,0.8,0.8,0.8,0.8,0.8,0.8,0.8,0.8,0.8,0.8,0.8,0.8,0.8,0.8,0.8,0.8,0.8,0.8,0.8,0.8,0.8,0.8,0.8,0.8,0.8,0.8,0.8,0.8,0.8,0.8,0.8,0.8,0.8,0.8,0.8,0.8,0.8,0.8,0.8,0.8,0.8,0.8,0.8,0.8,0.8,0.8,0.8,0.8,0.8,0.8,0.8,0.8,0.8,0.8,0.8,0.8,0.8,0.8,0.8,0.8,0.8,0.8,0.8,0.8,0.8,0.8,0,0,0,0,0,0,0,0,0,0,0,0,0,0,0,0,0,0,0,0,0,0,0,0,0,0,0,0,0,0,0,0,0.7,0.7,0.7,0.7,0.7,0.7,0.7,0.7,0.7,0.7,0.7,0.7,0.7,0.7,0.7,0.7,0.7,0.7,0.7,0.7,0.7,0.7,0.7,0.7,0.7,0.7,0.7,0.7,0.7,0,0,0.7,0.7,0.7,0.7,0.7,0.7,0.7,0.7,0.7,0.7,0.7,0.7,0.7,0.7,0.7,0,0,0,0,0,0,0.6,0.6,0.6,0.6,0.6,0.6,0,0,0.6,0.6,0.6,0.6,0.6,0.6,0.6,0.6,0.6,0.6,0.6,0.6,0.6,0.6,0.6,0.6,0.6,0.6,0.6,0.6,0.786821,0.786873,0.786926,0.786994,0.787067,0.787197,0.78733,0.787492,0.78766,0.78786,0.788062,0.788286,0.788513,0.78875,0.788993,0.789244,0.789496,0.789746,0.789998,0.790248,0.790496,0.790745,0.790994,0.791243,0.791487,0.79173,0.79197,0.792207,0.792446,0.79269,0.792934,0.793178,0.793424,0.79367,0.793921,0.794173,0.794437,0.794705,0.794978,0.795254,0.795546,0.795841,0.796147,0.796457,0.796787,0.797119,0.797462,0.797808,0.798176,0.798542,0.798925,0.799311,0.799714,0.800115,0.800524,0.800935,0.801355,0.801775,0.802207,0.802641,0.803077,0.803514,0.803946,0.804376,0.804798,0.805218,0.805627,0.806033,0.806442,0.806846,0.807243,0.807637,0.808036,0.808431,0.808824,0.809205,0.809582,0.809964,0.810345,0.810726,0.811104,0.811484,0.811861,0.812246,0.812632,0.813014,0.813398,0.813793,0.81419,0.814581,0.814974,0.815357,0.815738,0.816107,0.816478,0.816835,0.817188,0.817535,0.817881,0.818215,0.818543,0.818853,0.81916,0.81945,0.819734,0.820007,0.820278,0.820537,0.820794,0.821043,0.821287,0.82152,0.82175,0.821974,0.822195,0.822414,0.822628,0.822834,0.823035,0.823235,0.823431,0.823623,0.82381,0.823995,0.824173,0.824347,0.824518,0.824686,0.824848,0.825006,0.82516,0.825312,0.825456,0.825599,0.825736,0.825872,0.826,0.826127,0.826248,0.826368,0.826482,0.826597,0.826705,0.826811,0.826912,0.827013,0.827108,0.827202,0.827291,0.827379,0.827464,0.827546,0.827624,0.8277,0.82777,0.82784,0.827905,0.827969,0.828029,0.828087,0.828142,0.828194,0.828245,0.828292,0.828336,0.828377,0.828417,0.828454,0.828489,0.82852,0.828548,0.828574,0.828597,0.828617,0.828635,0.828649,0.828661,0.828669,0.828675,0.828677,0.828678,0.828675,0.82867,0.828661,0.828651,0.828636,0.828621,0.8286,0.82858,0.828554,0.828528,0.828497,0.828466,0.828431,0.828395,0.828354,0.828313,0.828268,0.828223,0.828175,0.828126,0.828074,0.828022,0.827967,0.827912,0.827856,0.827798,0.827738,0.827679,0.827618,0.827558,0.827497,0.827437,0.827376,0.827316,0.827256,0.827197,0.827138,0.827079,0.82702,0.826963,0.826906,0.826849,0.826792,0.826735,0.826679,0.826624,0.826568,0.826512,0.826457,0.826401,0.826344,0.826286,0.826228,0.826169,0.82611,0.826048,0.825986,0.825922,0.825857,0.82579,0.825723,0.825654,0.825584,0.825513,0.825441,0.825366,0.825291,0.825214,0.825135,0.825052,0.824969,0.824883,0.824797,0.82471,0.824622,0.824532,0.824441,0.824349,0.824258,0.824166,0.824076,0.823987,0.8239,0.823813,0.823719,nan,nan,nan,nan,nan,nan,nan,nan,nan,nan,nan,nan,nan,nan,nan,nan,nan,nan,nan,nan,nan,nan,nan,nan
0.7,0.7,0.7,0.7,0.7,0.7,0.7,0.7,0.7,0.7,0.7,0.7,0.7,0.7,0.8,0.8,0.8,0.8,0.8,0.8,0.8,0.8,0.8,0.8,0.8,0.8,0.8,0.8,0.8,0.8,0.8,0.8,0.8,0.8,0.8,0.8,0.8,0.8,0.8,0.8,0.8,0.8,0.8,0.8,0.8,0.8,0.8,0.8,0.8,0.8,0.8,0.8,0.8,0.8,0.8,0.8,0.8,0.8,0.8,0.8,0.8,0.8,0.8,0.8,0.8,0.8,0.8,0.8,0.8,0.8,0.8,0.8,0.8,0.8,0.8,0.8,0.8,0.8,0.8,0.8,0.8,0.8,0.8,0.8,0.8,0.8,0.8,0.8,0.8,0.8,0.8,0.8,0.8,0.8,0.8,0.8,0.8,0.8,0.8,0.8,0.8,0.8,0.8,0.8,0.8,0.8,0.8,0.8,0.8,0.8,0.8,0.8,0.8,0.8,0.8,0.8,0.8,0.8,0.8,0.8,0.8,0.8,0.8,0.8,0.8,0.8,0.8,0.8,0.8,0.8,0.8,0.8,0.8,0.8,0.8,0.8,0.8,0.8,0.8,0.8,0.8,0.8,0.8,0.8,0.8,0.8,0.8,0.8,0.8,0.8,0.8,0.8,0.8,0.8,0.8,0.8,0.8,0.8,0.8,0.8,0.8,0.8,0.8,0.8,0.8,0.8,0.8,0.8,0.8,0.8,0.8,0.8,0.8,0.8,0.8,0.8,0.8,0.8,0.8,0.8,0.8,0.8,0.8,0.8,0.8,0.8,0.8,0.8,0.8,0.8,0.8,0.8,0.8,0.8,0.8,0.8,0.8,0.8,0.8,0.8,0.8,0.8,0.8,0.8,0.8,0.8,0.8,0.8,0.8,0.8,0.8,0.8,0.8,0.8,0.8,0.8,0.8,0.8,0.8,0.8,0.8,0.8,0.8,0.8,0.8,0.8,0.8,0,0,0,0,0,0,0,0,0,0,0,0,0,0,0,0,0,0,0,0,0,0,0,0,0,0,0,0,0,0,0,0,0,0.7,0.7,0.7,0.7,0.7,0.7,0.7,0.7,0.7,0.7,0.7,0.7,0.7,0.7,0.7,0.7,0.7,0.7,0.7,0.7,0.7,0.7,0.7,0.7,0.7,0.7,0.7,0.7,0,0,0.7,0.7,0.7,0.7,0.7,0.7,0.7,0.7,0.7,0.7,0.7,0.7,0.7,0.7,0.7,0,0,0,0,0,0.6,0.6,0.6,0.6,0.6,0.6,0.6,0,0,0.6,0.6,0.6,0.6,0.6,0.6,0.6,0.6,0.6,0.6,0.6,0.6,0.6,0.6,0.6,0.6,0.6,0.6,0.6,0.6,0.786898,0.786951,0.787003,0.787071,0.787144,0.787274,0.787406,0.787568,0.787737,0.787937,0.78814,0.788364,0.788592,0.788829,0.789071,0.789324,0.789577,0.789828,0.790081,0.790331,0.790579,0.790826,0.791074,0.791322,0.791567,0.791812,0.792053,0.79229,0.792529,0.792771,0.793015,0.793257,0.793502,0.793747,0.793997,0.794248,0.79451,0.794775,0.795047,0.795322,0.795612,0.795904,0.796206,0.796513,0.79684,0.797169,0.79751,0.797853,0.79822,0.798584,0.798965,0.799348,0.799747,0.800144,0.800549,0.800955,0.801371,0.801787,0.80222,0.802653,0.803086,0.803519,0.803946,0.804372,0.804792,0.805208,0.805612,0.806015,0.806424,0.806827,0.807222,0.807616,0.808012,0.808405,0.808795,0.809174,0.809552,0.809933,0.810312,0.810692,0.811071,0.81145,0.811827,0.812209,0.812591,0.812972,0.813356,0.813749,0.814146,0.814537,0.814932,0.815318,0.815704,0.816073,0.816445,0.816801,0.817155,0.817502,0.817847,0.818183,0.818514,0.818822,0.819128,0.819418,0.819703,0.819978,0.82025,0.820511,0.82077,0.82102,0.821264,0.821496,0.821727,0.82195,0.82217,0.822389,0.822601,0.822807,0.823007,0.823205,0.8234,0.82359,0.823775,0.82396,0.824137,0.824309,0.824478,0.824643,0.824804,0.82496,0.825113,0.825265,0.825407,0.825548,0.825684,0.825819,0.825946,0.826073,0.826193,0.826312,0.826426,0.826541,0.826649,0.826755,0.826856,0.826956,0.827051,0.827145,0.827234,0.827322,0.827406,0.827487,0.827565,0.827641,0.827712,0.827781,0.827846,0.827909,0.827969,0.828026,0.82808,0.828132,0.828183,0.82823,0.828274,0.828315,0.828353,0.82839,0.828425,0.828456,0.828485,0.82851,0.828532,0.828552,0.82857,0.828584,0.828597,0.828605,0.828611,0.828614,0.828616,0.828613,0.828609,0.828601,0.828591,0.828577,0.828562,0.828543,0.828523,0.828498,0.828474,0.828444,0.828414,0.82838,0.828345,0.828305,0.828264,0.82822,0.828176,0.828129,0.828081,0.82803,0.827978,0.827924,0.827869,0.827814,0.827757,0.827698,0.827638,0.827579,0.827518,0.827457,0.827397,0.827337,0.827277,0.827216,0.827157,0.827098,0.827038,0.826979,0.826921,0.826864,0.826806,0.826749,0.826693,0.826637,0.826581,0.826524,0.826468,0.826412,0.826355,0.826298,0.826239,0.826181,0.826121,0.826061,0.825998,0.825936,0.825872,0.825808,0.82574,0.825673,0.825602,0.825532,0.825461,0.825389,0.825312,0.825235,0.825156,0.825076,0.824991,0.824906,0.82482,0.824733,0.824644,0.824555,0.824464,0.824372,0.824279,0.824187,0.824094,0.824003,0.823913,0.823825,0.823738,0.823639,nan,nan,nan,nan,nan,nan,nan,nan,nan,nan,nan,nan,nan,nan,nan,nan,nan,nan,nan,nan,nan,nan,nan,nan
0.7,0.7,0.7,0.7,0.7,0.7,0.7,0.7,0.7,0.7,0.7,0.7,0.7,0.7,0.8,0.8,0.8,0.8,0.8,0.8,0.8,0.8,0.8,0.8,0.8,0.8,0.8,0.8,0.8,0.8,0.8,0.8,0.8,0.8,0.8,0.8,0.8,0.8,0.8,0.8,0.8,0.8,0.8,0.8,0.8,0.8,0.8,0.8,0.8,0.8,0.8,0.8,0.8,0.8,0.8,0.8,0.8,0.8,0.8,0.8,0.8,0.8,0.8,0.8,0.8,0.8,0.8,0.8,0.8,0.8,0.8,0.8,0.8,0.8,0.8,0.8,0.8,0.8,0.8,0.8,0.8,0.8,0.8,0.8,0.8,0.8,0.8,0.8,0.8,0.8,0.8,0.8,0.8,0.8,0.8,0.8,0.8,0.8,0.8,0.8,0.8,0.8,0.8,0.8,0.8,0.8,0.8,0.8,0.8,0.8,0.8,0.8,0.8,0.8,0.8,0.8,0.8,0.8,0.8,0.8,0.8,0.8,0.8,0.8,0.8,0.8,0.8,0.8,0.8,0.8,0.8,0.8,0.8,0.8,0.8,0.8,0.8,0.8,0.8,0.8,0.8,0.8,0.8,0.8,0.8,0.8,0.8,0.8,0.8,0.8,0.8,0.8,0.8,0.8,0.8,0.8,0.8,0.8,0.8,0.8,0.8,0.8,0.8,0.8,0.8,0.8,0.8,0.8,0.8,0.8,0.8,0.8,0.8,0.8,0.8,0.8,0.8,0.8,0.8,0.8,0.8,0.8,0.8,0.8,0.8,0.8,0.8,0.8,0.8,0.8,0.8,0.8,0.8,0.8,0.8,0.8,0.8,0.8,0.8,0.8,0.8,0.8,0.8,0.8,0.8,0.8,0.8,0.8,0.8,0.8,0.8,0.8,0.8,0.8,0.8,0.8,0.8,0.8,0.8,0.8,0.8,0.8,0.8,0.8,0.8,0.8,0,0,0,0,0,0,0,0,0,0,0,0,0,0,0,0,0,0,0,0,0,0,0,0,0,0,0,0,0,0,0,0,0,0.7,0.7,0.7,0.7,0.7,0.7,0.7,0.7,0.7,0.7,0.7,0.7,0.7,0.7,0.7,0.7,0.7,0.7,0.7,0.7,0.7,0.7,0.7,0.7,0.7,0.7,0.7,0.7,0.7,0,0.7,0.7,0.7,0.7,0.7,0.7,0.7,0.7,0.7,0.7,0.7,0.7,0.7,0.7,0.7,0.7,0,0,0,0,0,0.6,0.6,0.6,0.6,0.6,0.6,0.6,0,0,0,0,0.6,0.6,0,0.6,0.6,0.6,0,0,0.6,0.6,0.6,0.6,0.6,0.6,0.6,0.6,0.6,0.6,0.786972,0.787024,0.787077,0.787144,0.787217,0.787347,0.787481,0.787644,0.787813,0.788013,0.788216,0.788439,0.788667,0.788907,0.789151,0.789401,0.789654,0.789909,0.790163,0.790414,0.790663,0.790914,0.791163,0.791408,0.791651,0.791896,0.792137,0.792374,0.792612,0.792853,0.793095,0.793333,0.793578,0.793825,0.794075,0.794324,0.794583,0.794845,0.795116,0.795392,0.79568,0.79597,0.79627,0.796574,0.7969,0.797227,0.797565,0.797906,0.798267,0.798627,0.799007,0.799388,0.799782,0.800175,0.800578,0.800983,0.801396,0.801809,0.802238,0.802669,0.803098,0.803527,0.803949,0.80437,0.804788,0.805203,0.805604,0.806002,0.806404,0.806804,0.807201,0.807594,0.807989,0.808376,0.808759,0.809137,0.809519,0.809897,0.810271,0.810651,0.811033,0.811413,0.811789,0.81217,0.812552,0.812932,0.813316,0.81371,0.814106,0.814497,0.814891,0.815277,0.815663,0.816033,0.816405,0.816762,0.817116,0.817463,0.81781,0.818147,0.818478,0.818787,0.819094,0.819385,0.819672,0.81995,0.820225,0.820484,0.820741,0.820989,0.821233,0.821469,0.821701,0.821924,0.822143,0.822362,0.822574,0.82278,0.822979,0.823177,0.823371,0.823561,0.823746,0.823928,0.824104,0.824275,0.824441,0.824605,0.824764,0.824918,0.825069,0.825219,0.825361,0.825503,0.825639,0.825772,0.825898,0.826024,0.826143,0.826263,0.826376,0.826489,0.826597,0.826703,0.826803,0.826903,0.826998,0.827092,0.827181,0.827268,0.827351,0.827432,0.82751,0.827586,0.827656,0.827725,0.827791,0.827854,0.827913,0.827969,0.828022,0.828073,0.828122,0.828169,0.828213,0.828254,0.828292,0.828328,0.828362,0.828393,0.828422,0.828447,0.828469,0.828489,0.828507,0.828521,0.828534,0.828542,0.828549,0.828551,0.828553,0.828551,0.828548,0.82854,0.828532,0.828518,0.828503,0.828485,0.828466,0.828443,0.828419,0.828391,0.828361,0.828328,0.828294,0.828255,0.828216,0.828173,0.82813,0.828083,0.828035,0.827985,0.827934,0.82788,0.827826,0.827771,0.827714,0.827656,0.827597,0.827538,0.827478,0.827418,0.827358,0.827298,0.827238,0.827177,0.827118,0.827058,0.826998,0.826939,0.826881,0.826823,0.826766,0.826709,0.826652,0.826595,0.826539,0.826482,0.826426,0.826369,0.826311,0.826252,0.826193,0.826134,0.826074,0.826013,0.82595,0.825887,0.825822,0.825757,0.825689,0.825621,0.825551,0.82548,0.825409,0.825336,0.825259,0.825181,0.8251,0.825018,0.824935,0.82485,0.824763,0.824674,0.824583,0.824492,0.8244,0.824307,0.824213,0.82412,0.824026,0.823934,0.823843,0.823753,0.823663,0.823552,nan,nan,nan,nan,nan,nan,nan,nan,nan,nan,nan,nan,nan,nan,nan,nan,nan,nan,nan,nan,nan,nan,nan,nan
0.7,0.7,0.7,0.7,0.7,0.7,0.7,0.7,0.7,0.7,0.7,0.7,0.7,0.7,0.8,0.8,0.8,0.8,0.8,0.8,0.8,0.8,0.8,0.8,0.8,0.8,0.8,0.8,0.8,0.8,0.8,0.8,0.8,0.8,0.8,0.8,0.8,0.8,0.8,0.8,0.8,0.8,0.8,0.8,0.8,0.8,0.8,0.8,0.8,0.8,0.8,0.8,0.8,0.8,0.8,0.8,0.8,0.8,0.8,0.8,0.8,0.8,0.8,0.8,0.8,0.8,0.8,0.8,0.8,0.8,0.8,0.8,0.8,0.8,0.8,0.8,0.8,0.8,0.8,0.8,0.8,0.8,0.8,0.8,0.8,0.8,0.8,0.8,0.8,0.8,0.8,0.8,0.8,0.8,0.8,0.8,0.8,0.8,0.8,0.8,0.8,0.8,0.8,0.8,0.8,0.8,0.8,0.8,0.8,0.8,0.8,0.8,0.8,0.8,0.8,0.8,0.8,0.8,0.8,0.8,0.8,0.8,0.8,0.8,0.8,0.8,0.8,0.8,0.8,0.8,0.8,0.8,0.8,0.8,0.8,0.8,0.8,0.8,0.8,0.8,0.8,0.8,0.8,0.8,0.8,0.8,0.8,0.8,0.8,0.8,0.8,0.8,0.8,0.8,0.8,0.8,0.8,0.8,0.8,0.8,0.8,0.8,0.8,0.8,0.8,0.8,0.8,0.8,0.8,0.8,0.8,0.8,0.8,0.8,0.8,0.8,0.8,0.8,0.8,0.8,0.8,0.8,0.8,0.8,0.8,0.8,0.8,0.8,0.8,0.8,0.8,0.8,0.8,0.8,0.8,0.8,0.8,0.8,0.8,0.8,0.8,0.8,0.8,0.8,0.8,0.8,0.8,0.8,0.8,0.8,0.8,0.8,0.8,0.8,0.8,0.8,0.8,0.8,0.8,0.8,0.8,0.8,0.8,0.8,0.8,0.8,0,0,0,0,0,0,0,0,0,0,0,0,0,0,0,0,0,0,0,0,0,0,0,0,0,0,0,0,0,0,0,0,0,0.7,0.7,0.7,0.7,0.7,0.7,0.7,0.7,0.7,0.7,0.7,0.7,0.7,0.7,0.7,0.7,0.7,0.7,0.7,0.7,0.7,0.7,0.7,0.7,0.7,0.7,0.7,0.7,0.7,0.7,0.7,0.7,0.7,0,0.7,0.7,0.7,0.7,0.7,0.7,0.7,0,0,0,0.7,0.7,0,0,0,0,0.6,0.6,0.6,0.6,0.6,0.6,0.6,0,0,0,0,0,0,0,0,0,0.6,0,0,0,0.6,0.6,0.6,0.6,0.6,0.6,0.6,0.6,0.6,0.6,0.787042,0.787095,0.787148,0.787215,0.787288,0.78742,0.787554,0.787718,0.787887,0.788087,0.788291,0.788515,0.788743,0.788985,0.789231,0.78948,0.789734,0.789991,0.790247,0.790498,0.790748,0.791001,0.79125,0.791494,0.791736,0.791981,0.792222,0.792458,0.792695,0.792935,0.793175,0.793413,0.793658,0.793905,0.794154,0.794401,0.794658,0.794917,0.795186,0.795461,0.795748,0.796037,0.796335,0.796638,0.796962,0.797287,0.797623,0.797961,0.798319,0.798674,0.799051,0.79943,0.79982,0.800208,0.800609,0.801012,0.801423,0.801834,0.802257,0.802681,0.803107,0.803533,0.803953,0.804371,0.804786,0.805196,0.805595,0.805991,0.806388,0.806784,0.807181,0.807572,0.807965,0.808349,0.808726,0.809102,0.809482,0.809859,0.810232,0.810611,0.810992,0.811371,0.811746,0.812127,0.812511,0.812891,0.813274,0.813668,0.814063,0.814454,0.814848,0.815231,0.815615,0.815985,0.816359,0.816718,0.817074,0.817421,0.817768,0.818104,0.818435,0.818745,0.819053,0.819347,0.819637,0.819916,0.820192,0.820452,0.820711,0.820958,0.821202,0.821438,0.821672,0.821896,0.822116,0.822333,0.822545,0.822751,0.822951,0.823148,0.823342,0.823532,0.823715,0.823896,0.824071,0.824241,0.824406,0.824569,0.824726,0.824879,0.825029,0.825176,0.825318,0.825459,0.825593,0.825725,0.825851,0.825977,0.826096,0.826216,0.826328,0.826441,0.826548,0.826654,0.826754,0.826854,0.826949,0.827042,0.82713,0.827217,0.827299,0.82738,0.827458,0.827533,0.827603,0.827671,0.827736,0.827799,0.827858,0.827914,0.827967,0.828017,0.828065,0.828111,0.828155,0.828195,0.828233,0.828268,0.828301,0.828331,0.82836,0.828385,0.828407,0.828426,0.828444,0.828458,0.828471,0.82848,0.828486,0.828489,0.828491,0.828489,0.828487,0.828479,0.828471,0.828458,0.828444,0.828427,0.828409,0.828386,0.828364,0.828336,0.828307,0.828275,0.828242,0.828205,0.828167,0.828124,0.828082,0.828035,0.827988,0.827939,0.827888,0.827835,0.827781,0.827726,0.82767,0.827612,0.827554,0.827496,0.827437,0.827377,0.827318,0.827257,0.827197,0.827137,0.827078,0.827018,0.826958,0.826898,0.82684,0.826782,0.826725,0.826668,0.826611,0.826554,0.826498,0.826441,0.826384,0.826327,0.826268,0.826208,0.826149,0.82609,0.826029,0.825969,0.825904,0.82584,0.825774,0.825708,0.825641,0.825573,0.825502,0.825431,0.825358,0.825284,0.825207,0.825128,0.825047,0.824964,0.82488,0.824795,0.824708,0.824619,0.824526,0.824433,0.824338,0.824244,0.824149,0.824055,0.82396,0.823867,0.823775,0.823683,0.823589,0.823467,nan,nan,nan,nan,nan,nan,nan,nan,nan,nan,nan,nan,nan,nan,nan,nan,nan,nan,nan,nan,nan,nan,nan,nan
0.7,0.7,0.7,0.7,0.7,0.7,0.7,0.7,0.7,0.7,0.7,0.7,0.7,0.7,0.8,0.8,0.8,0.8,0.8,0.8,0.8,0.8,0.8,0.8,0.8,0.8,0.8,0.8,0.8,0.8,0.8,0.8,0.8,0.8,0.8,0.8,0.8,0.8,0.8,0.8,0.8,0.8,0.8,0.8,0.8,0.8,0.8,0.8,0.8,0.8,0.8,0.8,0.8,0.8,0.8,0.8,0.8,0.8,0.8,0.8,0.8,0.8,0.8,0.8,0.8,0.8,0.8,0.8,0.8,0.8,0.8,0.8,0.8,0.8,0.8,0.8,0.8,0.8,0.8,0.8,0.8,0.8,0.8,0.8,0.8,0.8,0.8,0.8,0.8,0.8,0.8,0.8,0.8,0.8,0.8,0.8,0.8,0.8,0.8,0.8,0.8,0.8,0.8,0.8,0.8,0.8,0.8,0.8,0.8,0.8,0.8,0.8,0.8,0.8,0.8,0.8,0.8,0.8,0.8,0.8,0.8,0.8,0.8,0.8,0.8,0.8,0.8,0.8,0.8,0.8,0.8,0.8,0.8,0.8,0.8,0.8,0.8,0.8,0.8,0.8,0.8,0.8,0.8,0.8,0.8,0.8,0.8,0.8,0.8,0.8,0.8,0.8,0.8,0.8,0.8,0.8,0.8,0.8,0.8,0.8,0.8,0.8,0.8,0.8,0.8,0.8,0.8,0.8,0.8,0.8,0.8,0.8,0.8,0.8,0.8,0.8,0.8,0.8,0.8,0.8,0.8,0.8,0.8,0.8,0.8,0.8,0.8,0.8,0.8,0.8,0.8,0.8,0.8,0.8,0.8,0.8,0.8,0.8,0.8,0.8,0.8,0.8,0.8,0.8,0.8,0.8,0.8,0.8,0.8,0.8,0.8,0.8,0.8,0.8,0.8,0.8,0.8,0.8,0.8,0.8,0.8,0.8,0.8,0.8,0.8,0,0,0,0,0,0,0,0,0,0,0,0,0,0,0,0,0,0,0,0,0,0,0,0,0,0,0,0,0,0,0,0,0,0,0.7,0.7,0.7,0.7,0.7,0.7,0.7,0.7,0.7,0.7,0.7,0.7,0.7,0.7,0.7,0.7,0.7,0.7,0.7,0.7,0.7,0.7,0.7,0.7,0.7,0.7,0.7,0.7,0.7,0,0.7,0.7,0,0,0,0,0.7,0.7,0.7,0.7,0,0,0,0,0.7,0.7,0,0,0,0,0.6,0.6,0.6,0.6,0.6,0.6,0.6,0,0,0,0,0.6,0.6,0.6,0.6,0,0,0,0,0,0,0.6,0.6,0.6,0.6,0.6,0.6,0.6,0.6,0.6,0.787111,0.787164,0.787217,0.787285,0.787358,0.78749,0.787626,0.78779,0.78796,0.788159,0.788363,0.78859,0.788821,0.789064,0.789311,0.789562,0.789816,0.790074,0.790331,0.790583,0.790834,0.791087,0.791336,0.79158,0.791822,0.792067,0.792308,0.792544,0.792779,0.793016,0.793255,0.793495,0.79374,0.793986,0.794234,0.794481,0.794736,0.794994,0.795259,0.795529,0.795815,0.796104,0.796402,0.796704,0.797026,0.79735,0.797683,0.798019,0.798374,0.798727,0.799099,0.799473,0.79986,0.800245,0.800642,0.801041,0.801452,0.801861,0.802274,0.802691,0.803113,0.803537,0.803958,0.804375,0.804783,0.805189,0.805587,0.80598,0.806374,0.806769,0.807163,0.807551,0.807941,0.808323,0.808698,0.809069,0.809442,0.809819,0.810195,0.810572,0.810947,0.811322,0.811696,0.81208,0.812467,0.812847,0.81323,0.813623,0.814018,0.814408,0.814801,0.81518,0.815559,0.815932,0.816308,0.816669,0.817027,0.817375,0.817722,0.818055,0.818383,0.818695,0.819005,0.819304,0.819597,0.819875,0.820151,0.820416,0.820678,0.820926,0.821171,0.821405,0.821639,0.821868,0.822089,0.822304,0.822514,0.82272,0.82292,0.823119,0.823313,0.823503,0.823685,0.823864,0.824038,0.824208,0.824372,0.824534,0.82469,0.824843,0.824991,0.825137,0.825277,0.825416,0.825548,0.825679,0.825805,0.825932,0.826052,0.82617,0.826282,0.826395,0.826502,0.826607,0.826708,0.826809,0.826902,0.826995,0.827082,0.827169,0.82725,0.82733,0.827407,0.827482,0.827552,0.82762,0.827684,0.827746,0.827804,0.82786,0.827912,0.827962,0.828009,0.828055,0.828098,0.828138,0.828175,0.82821,0.828242,0.828272,0.8283,0.828324,0.828346,0.828365,0.828383,0.828397,0.828409,0.828417,0.828425,0.828427,0.828429,0.828428,0.828426,0.828418,0.82841,0.828398,0.828385,0.828368,0.828351,0.828329,0.828307,0.828279,0.828251,0.82822,0.828189,0.828153,0.828116,0.828074,0.828032,0.827986,0.827939,0.827891,0.827841,0.827789,0.827736,0.82768,0.827624,0.827567,0.82751,0.827453,0.827395,0.827336,0.827276,0.827216,0.827156,0.827096,0.827037,0.826977,0.826917,0.826857,0.826799,0.826741,0.826683,0.826626,0.826569,0.826512,0.826456,0.8264,0.826343,0.826285,0.826226,0.826165,0.826106,0.826046,0.825988,0.825928,0.825862,0.825797,0.825729,0.825662,0.825595,0.825528,0.825456,0.825383,0.825308,0.825233,0.825156,0.825078,0.824997,0.824914,0.824828,0.824742,0.824655,0.824565,0.824472,0.824377,0.82428,0.824183,0.824086,0.823991,0.823896,0.823802,0.823709,0.823615,0.823517,0.823384,0.823229,nan,nan,nan,nan,nan,nan,nan,nan,nan,nan,nan,nan,nan,nan,nan,nan,nan,nan,nan,nan,nan,nan,nan
0.7,0.7,0.7,0.7,0.7,0.7,0.7,0.7,0.7,0.7,0.7,0.7,0.7,0.7,0.8,0.8,0.8,0.8,0.8,0.8,0.8,0.8,0.8,0.8,0.8,0.8,0.8,0.8,0.8,0.8,0.8,0.8,0.8,0.8,0.8,0.8,0.8,0.8,0.8,0.8,0.8,0.8,0.8,0.8,0.8,0.8,0.8,0.8,0.8,0.8,0.8,0.8,0.8,0.8,0.8,0.8,0.8,0.8,0.8,0.8,0.8,0.8,0.8,0.8,0.8,0.8,0.8,0.8,0.8,0.8,0.8,0.8,0.8,0.8,0.8,0.8,0.8,0.8,0.8,0.8,0.8,0.8,0.8,0.8,0.8,0.8,0.8,0.8,0.8,0.8,0.8,0.8,0.8,0.8,0.8,0.8,0.8,0.8,0.8,0.8,0.8,0.8,0.8,0.8,0.8,0.8,0.8,0.8,0.8,0.8,0.8,0.8,0.8,0.8,0.8,0.8,0.8,0.8,0.8,0.8,0.8,0.8,0.8,0.8,0.8,0.8,0.8,0.8,0.8,0.8,0.8,0.8,0.8,0.8,0.8,0.8,0.8,0.8,0.8,0.8,0.8,0.8,0.8,0.8,0.8,0.8,0.8,0.8,0.8,0.8,0.8,0.8,0.8,0.8,0.8,0.8,0.8,0.8,0.8,0.8,0.8,0.8,0.8,0.8,0.8,0.8,0.8,0.8,0.8,0.8,0.8,0.8,0.8,0.8,0.8,0.8,0.8,0.8,0.8,0.8,0.8,0.8,0.8,0.8,0.8,0.8,0.8,0.8,0.8,0.8,0.8,0.8,0.8,0.8,0.8,0.8,0.8,0.8,0.8,0.8,0.8,0.8,0.8,0.8,0.8,0.8,0.8,0.8,0.8,0.8,0.8,0.8,0.8,0.8,0.8,0.8,0.8,0.8,0.8,0.8,0.8,0.8,0.8,0.8,0.8,0,0,0,0,0,0,0,0,0,0,0,0,0,0,0,0,0,0,0,0,0,0,0,0,0,0,0,0,0,0,0,0,0,0.7,0.7,0.7,0.7,0.7,0.7,0.7,0.7,0.7,0.7,0.7,0.7,0.7,0.7,0.7,0.7,0.7,0.7,0.7,0.7,0.7,0.7,0.7,0.7,0.7,0.7,0.7,0.7,0.7,0.7,0,0,0,0,0,0,0,0,0.7,0,0,0,0,0,0,0,0.7,0,0,0,0,0.6,0.6,0.6,0.6,0.6,0.6,0.6,0.6,0,0,0.6,0.6,0.6,0.6,0.6,0,0,0,0,0,0,0.6,0.6,0.6,0.6,0.6,0.6,0.6,0.6,0.6,0.787177,0.787231,0.787285,0.787352,0.787426,0.787559,0.787696,0.787862,0.788033,0.788235,0.78844,0.788668,0.7889,0.789144,0.789393,0.789645,0.789901,0.79016,0.790418,0.790671,0.790921,0.791173,0.791422,0.791668,0.791912,0.792157,0.792397,0.792634,0.792868,0.793103,0.793342,0.793582,0.793825,0.794071,0.794317,0.794563,0.794817,0.795074,0.795337,0.795605,0.795889,0.796177,0.796474,0.796775,0.797095,0.797416,0.797746,0.79808,0.798432,0.798783,0.799152,0.799522,0.799906,0.800287,0.800681,0.801077,0.801482,0.801885,0.802297,0.802712,0.80313,0.80355,0.803968,0.804383,0.804785,0.805187,0.805582,0.805972,0.806363,0.806752,0.80714,0.807524,0.80791,0.808291,0.808668,0.809038,0.809408,0.809783,0.810159,0.810533,0.810906,0.81128,0.811651,0.812035,0.812423,0.812802,0.813184,0.813576,0.813969,0.814358,0.81475,0.815128,0.815504,0.815878,0.816255,0.816616,0.816975,0.817324,0.817671,0.818005,0.818334,0.818647,0.818958,0.81926,0.819555,0.819834,0.82011,0.820374,0.820637,0.82089,0.821138,0.821373,0.821607,0.821838,0.82206,0.822276,0.822486,0.822692,0.822892,0.823091,0.823285,0.823474,0.823655,0.823834,0.824007,0.824176,0.824341,0.824502,0.824657,0.824809,0.824956,0.825101,0.82524,0.825377,0.825509,0.825639,0.825765,0.825892,0.826011,0.826129,0.826241,0.826353,0.826459,0.826564,0.826665,0.826764,0.826858,0.826951,0.827037,0.827123,0.827204,0.827284,0.827361,0.827436,0.827505,0.827572,0.827635,0.827696,0.827754,0.82781,0.827861,0.82791,0.827956,0.828001,0.828044,0.828083,0.82812,0.828154,0.828185,0.828214,0.828241,0.828265,0.828287,0.828305,0.828322,0.828335,0.828347,0.828355,0.828363,0.828366,0.828368,0.828366,0.828364,0.828357,0.828349,0.828338,0.828326,0.828309,0.828292,0.82827,0.828249,0.828222,0.828195,0.828164,0.828133,0.828098,0.828062,0.828021,0.82798,0.827934,0.827888,0.827839,0.82779,0.827739,0.827687,0.827632,0.827576,0.827519,0.827463,0.827406,0.827349,0.82729,0.827231,0.827171,0.827112,0.827053,0.826994,0.826935,0.826875,0.826816,0.826757,0.8267,0.826642,0.826585,0.826527,0.82647,0.826414,0.826359,0.826301,0.826243,0.826184,0.826124,0.826064,0.826005,0.825947,0.825888,0.825821,0.825755,0.825688,0.82562,0.825552,0.825485,0.825413,0.825341,0.825265,0.825189,0.825112,0.825034,0.824953,0.824871,0.824784,0.824697,0.824608,0.824517,0.824423,0.824328,0.824229,0.82413,0.824032,0.823935,0.823838,0.823742,0.823647,0.823544,0.823435,nan,nan,nan,nan,nan,nan,nan,nan,nan,nan,nan,nan,nan,nan,nan,nan,nan,nan,nan,nan,nan,nan,nan,nan,nan
0.7,0.7,0.7,0.7,0.7,0.7,0.7,0.7,0.7,0.7,0.7,0.7,0.7,0.8,0.8,0.8,0.8,0.8,0.8,0.8,0.8,0.8,0.8,0.8,0.8,0.8,0.8,0.8,0.8,0.8,0.8,0.8,0.8,0.8,0.8,0.8,0.8,0.8,0.8,0.8,0.8,0.8,0.8,0.8,0.8,0.8,0.8,0.8,0.8,0.8,0.8,0.8,0.8,0.8,0.8,0.8,0.8,0.8,0.8,0.8,0.8,0.8,0.8,0.8,0.8,0.8,0.8,0.8,0.8,0.8,0.8,0.8,0.8,0.8,0.8,0.8,0.8,0.8,0.8,0.8,0.8,0.8,0.8,0.8,0.8,0.8,0.8,0.8,0.8,0.8,0.8,0.8,0.8,0.8,0.8,0.8,0.8,0.8,0.8,0.8,0.8,0.8,0.8,0.8,0.8,0.8,0.8,0.8,0.8,0.8,0.8,0.8,0.8,0.8,0.8,0.8,0.8,0.8,0.8,0.8,0.8,0.8,0.8,0.8,0.8,0.8,0.8,0.8,0.8,0.8,0.8,0.8,0.8,0.8,0.8,0.8,0.8,0.8,0.8,0.8,0.8,0.8,0.8,0.8,0.8,0.8,0.8,0.8,0.8,0.8,0.8,0.8,0.8,0.8,0.8,0.8,0.8,0.8,0.8,0.8,0.8,0.8,0.8,0.8,0.8,0.8,0.8,0.8,0.8,0.8,0.8,0.8,0.8,0.8,0.8,0.8,0.8,0.8,0.8,0.8,0.8,0.8,0.8,0.8,0.8,0.8,0.8,0.8,0.8,0.8,0.8,0.8,0.8,0.8,0.8,0.8,0.8,0.8,0.8,0.8,0.8,0.8,0.8,0.8,0.8,0.8,0.8,0.8,0.8,0.8,0.8,0.8,0.8,0.8,0.8,0.8,0.8,0.8,0.8,0.8,0.8,0.8,0.8,0.8,0.8,0,0,0,0,0,0,0,0,0,0,0,0,0,0,0,0,0,0,0,0,0,0,0,0,0,0,0,0,0,0,0,0,0.7,0.7,0.7,0.7,0.7,0.7,0.7,0.7,0.7,0.7,0.7,0.7,0.7,0.7,0.7,0.7,0.7,0.7,0.7,0.7,0.7,0.7,0.7,0.7,0.7,0.7,0.7,0.7,0.7,0.7,0.7,0.7,0,0,0,0,0,0,0,0,0,0,0,0,0,0,0,0.7,0,0,0,0,0.6,0.6,0.6,0.6,0.6,0.6,0.6,0.6,0,0,0.6,0.6,0.6,0.6,0.6,0,0,0,0,0,0.6,0.6,0.6,0.6,0.6,0.6,0.6,0.6,0.6,0.6,0.787242,0.787296,0.78735,0.787419,0.787493,0.787628,0.787765,0.787932,0.788106,0.788311,0.788519,0.788746,0.788979,0.789225,0.789475,0.789729,0.789986,0.790246,0.790505,0.790759,0.791009,0.791258,0.791508,0.791757,0.792002,0.792247,0.792487,0.792724,0.792957,0.793192,0.79343,0.793669,0.793912,0.794156,0.794402,0.794646,0.794899,0.795154,0.795416,0.795682,0.795965,0.796252,0.796548,0.796847,0.797164,0.797483,0.797811,0.798142,0.798492,0.798839,0.799205,0.799573,0.799953,0.800332,0.800723,0.801114,0.801511,0.801909,0.802322,0.802737,0.803151,0.803567,0.803981,0.804391,0.80479,0.805188,0.805578,0.805965,0.806351,0.806735,0.807115,0.807494,0.807878,0.808259,0.808638,0.809008,0.809376,0.809749,0.810123,0.810496,0.810866,0.811239,0.811609,0.811992,0.812378,0.812757,0.813138,0.813528,0.813921,0.814308,0.814699,0.815075,0.815451,0.815824,0.816201,0.816563,0.816922,0.817271,0.81762,0.817954,0.818285,0.818599,0.818912,0.819215,0.819512,0.819792,0.820068,0.820332,0.820595,0.820853,0.821105,0.821341,0.821576,0.821808,0.822032,0.822248,0.822459,0.822665,0.822866,0.823065,0.823257,0.823444,0.823626,0.823805,0.823978,0.824146,0.82431,0.824471,0.824625,0.824776,0.824922,0.825066,0.825204,0.825341,0.825472,0.825602,0.825727,0.825853,0.825972,0.82609,0.826201,0.826313,0.826418,0.826523,0.826622,0.826721,0.826815,0.826908,0.826994,0.827079,0.82716,0.827239,0.827316,0.827391,0.827459,0.827526,0.827588,0.827649,0.827706,0.827761,0.827812,0.827859,0.827905,0.827949,0.827991,0.828029,0.828066,0.828099,0.828129,0.828156,0.828183,0.828207,0.828228,0.828246,0.828262,0.828275,0.828286,0.828294,0.828302,0.828305,0.828307,0.828305,0.828302,0.828296,0.828289,0.828278,0.828267,0.82825,0.828233,0.828212,0.82819,0.828164,0.828138,0.828107,0.828076,0.828042,0.828006,0.827967,0.827927,0.827881,0.827835,0.827787,0.827738,0.827688,0.827637,0.827583,0.827527,0.827471,0.827415,0.827359,0.827302,0.827244,0.827186,0.827126,0.827067,0.82701,0.826952,0.826893,0.826833,0.826774,0.826716,0.826658,0.826601,0.826544,0.826486,0.826429,0.826373,0.826317,0.826259,0.826201,0.826142,0.826083,0.826024,0.825965,0.825907,0.825847,0.825781,0.825715,0.825648,0.82558,0.825511,0.825442,0.825371,0.8253,0.825224,0.825148,0.82507,0.824991,0.824912,0.82483,0.824743,0.824654,0.824564,0.824471,0.824377,0.82428,0.82418,0.824081,0.823981,0.823882,0.823783,0.823685,0.823586,0.823474,0.82335,nan,nan,nan,nan,nan,nan,nan,nan,nan,nan,nan,nan,nan,nan,nan,nan,nan,nan,nan,nan,nan,nan,nan,nan,nan
0.7,0.7,0.7,0.7,0.7,0.7,0.7,0.7,0.7,0.7,0.7,0.7,0.7,0.8,0.8,0.8,0.8,0.8,0.8,0.8,0.8,0.8,0.8,0.8,0.8,0.8,0.8,0.8,0.8,0.8,0.8,0.8,0.8,0.8,0.8,0.8,0.8,0.8,0.8,0.8,0.8,0.8,0.8,0.8,0.8,0.8,0.8,0.8,0.8,0.8,0.8,0.8,0.8,0.8,0.8,0.8,0.8,0.8,0.8,0.8,0.8,0.8,0.8,0.8,0.8,0.8,0.8,0.8,0.8,0.8,0.8,0.8,0.8,0.8,0.8,0.8,0.8,0.8,0.8,0.8,0.8,0.8,0.8,0.8,0.8,0.8,0.8,0.8,0.8,0.8,0.8,0.8,0.8,0.8,0.8,0.8,0.8,0.8,0.8,0.8,0.8,0.8,0.8,0.8,0.8,0.8,0.8,0.8,0.8,0.8,0.8,0.8,0.8,0.8,0.8,0.8,0.8,0.8,0.8,0.8,0.8,0.8,0.8,0.8,0.8,0.8,0.8,0.8,0.8,0.8,0.8,0.8,0.8,0.8,0.8,0.8,0.8,0.8,0.8,0.8,0.8,0.8,0.8,0.8,0.8,0.8,0.8,0.8,0.8,0.8,0.8,0.8,0.8,0.8,0.8,0.8,0.8,0.8,0.8,0.8,0.8,0.8,0.8,0.8,0.8,0.8,0.8,0.8,0.8,0.8,0.8,0.8,0.8,0.8,0.8,0.8,0.8,0.8,0.8,0.8,0.8,0.8,0.8,0.8,0.8,0.8,0.8,0.8,0.8,0.8,0.8,0.8,0.8,0.8,0.8,0.8,0.8,0.8,0.8,0.8,0.8,0.8,0.8,0.8,0.8,0.8,0.8,0.8,0.8,0.8,0.8,0.8,0.8,0.8,0.8,0.8,0.8,0.8,0.8,0.8,0.8,0.8,0.8,0.8,0.8,0,0,0,0,0,0,0,0,0,0,0,0,0,0,0,0,0,0,0,0,0,0,0.7,0.7,0.7,0.7,0,0,0,0,0.7,0.7,0.7,0.7,0.7,0.7,0.7,0.7,0.7,0.7,0.7,0.7,0.7,0.7,0.7,0.7,0.7,0.7,0.7,0.7,0.7,0.7,0.7,0.7,0.7,0.7,0.7,0.7,0.7,0.7,0.7,0.7,0.7,0.7,0,0,0,0,0,0,0,0,0,0,0,0,0,0,0,0.7,0,0,0,0,0.6,0.6,0.6,0.6,0.6,0.6,0.6,0.6,0,0,0.6,0.6,0.6,0.6,0.6,0,0,0,0,0,0.6,0.6,0.6,0.6,0.6,0.6,0.6,0.6,0.6,0.6,0.787305,0.78736,0.787415,0.787484,0.787559,0.787695,0.787835,0.788003,0.788179,0.788386,0.788597,0.788826,0.789061,0.789309,0.789561,0.789817,0.790075,0.790337,0.790598,0.790852,0.791103,0.791353,0.791602,0.791849,0.792093,0.792338,0.79258,0.792818,0.793052,0.793286,0.793522,0.793757,0.793998,0.794241,0.794488,0.794733,0.794985,0.79524,0.7955,0.795765,0.796045,0.796328,0.796623,0.796923,0.797237,0.797554,0.79788,0.798209,0.798556,0.798901,0.799264,0.799629,0.800006,0.800382,0.80077,0.801158,0.801552,0.801947,0.802356,0.802764,0.803168,0.803576,0.803986,0.804393,0.804791,0.805188,0.805576,0.80596,0.806343,0.806726,0.807107,0.807483,0.807858,0.808232,0.808603,0.808972,0.809342,0.809713,0.81008,0.810453,0.810826,0.811198,0.811567,0.811945,0.812324,0.812704,0.813089,0.813479,0.81387,0.814252,0.814636,0.815016,0.815396,0.815769,0.816146,0.816508,0.816867,0.817216,0.817565,0.817901,0.818231,0.818547,0.818862,0.819166,0.819465,0.819747,0.820025,0.820291,0.820555,0.820812,0.821063,0.821304,0.821543,0.821777,0.822001,0.822218,0.82243,0.822637,0.822838,0.823037,0.82323,0.823418,0.823598,0.823777,0.823949,0.824117,0.82428,0.82444,0.824595,0.824746,0.824892,0.825036,0.825172,0.825309,0.82544,0.82557,0.825694,0.825818,0.825937,0.826055,0.826166,0.826278,0.826383,0.826487,0.826586,0.826684,0.826777,0.826869,0.826955,0.827041,0.827121,0.8272,0.827275,0.827348,0.827417,0.827483,0.827545,0.827605,0.827661,0.827716,0.827766,0.827813,0.827858,0.827901,0.827941,0.827979,0.828015,0.828047,0.828076,0.828103,0.828129,0.828151,0.828172,0.82819,0.828206,0.828218,0.828228,0.828236,0.828243,0.828246,0.828248,0.828246,0.828243,0.828236,0.828229,0.828218,0.828207,0.828191,0.828174,0.828152,0.82813,0.828104,0.828078,0.828048,0.828017,0.827983,0.827947,0.827908,0.827869,0.827824,0.827778,0.827732,0.827684,0.827634,0.827582,0.827529,0.827475,0.82742,0.827365,0.827309,0.827252,0.827195,0.827137,0.827079,0.827022,0.826965,0.826907,0.826849,0.82679,0.826732,0.826675,0.826617,0.826561,0.826505,0.826448,0.826391,0.826335,0.826278,0.826221,0.826163,0.826106,0.826047,0.825989,0.82593,0.82587,0.825809,0.825744,0.825679,0.825611,0.825544,0.825475,0.825407,0.825336,0.825264,0.825189,0.825115,0.825037,0.824958,0.824877,0.824794,0.824708,0.82462,0.824529,0.824436,0.82434,0.824242,0.82414,0.824039,0.823937,0.823836,0.823735,0.823633,0.823531,0.823411,0.823276,nan,nan,nan,nan,nan,nan,nan,nan,nan,nan,nan,nan,nan,nan,nan,nan,nan,nan,nan,nan,nan,nan,nan,nan,nan
0.7,0.7,0.7,0.7,0.7,0.7,0.7,0.7,0.7,0.7,0.7,0.7,0.7,0.8,0.8,0.8,0.8,0.8,0.8,0.8,0.8,0.8,0.8,0.8,0.8,0.8,0.8,0.8,0.8,0.8,0.8,0.8,0.8,0.8,0.8,0.8,0.8,0.8,0.8,0.8,0.8,0.8,0.8,0.8,0.8,0.8,0.8,0.8,0.8,0.8,0.8,0.8,0.8,0.8,0.8,0.8,0.8,0.8,0.8,0.8,0.8,0.8,0.8,0.8,0.8,0.8,0.8,0.8,0.8,0.8,0.8,0.8,0.8,0.8,0.8,0.8,0.8,0.8,0.8,0.8,0.8,0.8,0.8,0.8,0.8,0.8,0.8,0.8,0.8,0.8,0.8,0.8,0.8,0.8,0.8,0.8,0.8,0.8,0.8,0.8,0.8,0.8,0.8,0.8,0.8,0.8,0.8,0.8,0.8,0.8,0.8,0.8,0.8,0.8,0.8,0.8,0.8,0.8,0.8,0.8,0.8,0.8,0.8,0.8,0.8,0.8,0.8,0.8,0.8,0.8,0.8,0.8,0.8,0.8,0.8,0.8,0.8,0.8,0.8,0.8,0.8,0.8,0.8,0.8,0.8,0.8,0.8,0.8,0.8,0.8,0.8,0.8,0.8,0.8,0.8,0.8,0.8,0.8,0.8,0.8,0.8,0.8,0.8,0.8,0.8,0.8,0.8,0.8,0.8,0.8,0.8,0.8,0.8,0.8,0.8,0.8,0.8,0.8,0.8,0.8,0.8,0.8,0.8,0.8,0.8,0.8,0.8,0.8,0.8,0.8,0.8,0.8,0.8,0.8,0.8,0.8,0.8,0.8,0.8,0.8,0.8,0.8,0.8,0.8,0.8,0.8,0.8,0.8,0.8,0.8,0.8,0.8,0.8,0.8,0.8,0.8,0.8,0.8,0.8,0.8,0.8,0.8,0.8,0.8,0.8,0,0,0,0,0,0,0,0,0,0,0,0,0,0,0,0,0,0,0,0,0,0,0.7,0.7,0.7,0.7,0,0,0,0,0.7,0.7,0.7,0.7,0.7,0.7,0.7,0.7,0.7,0.7,0.7,0.7,0.7,0.7,0.7,0.7,0.7,0.7,0.7,0.7,0.7,0.7,0.7,0.7,0.7,0.7,0.7,0.7,0.7,0.7,0.7,0.7,0.7,0.7,0.7,0.7,0.7,0.7,0.7,0.7,0.7,0,0,0,0,0,0,0,0,0.7,0.7,0,0,0,0,0.6,0.6,0.6,0.6,0.6,0.6,0.6,0.6,0,0.6,0.6,0,0,0.6,0,0,0,0,0,0.6,0.6,0.6,0.6,0.6,0.6,0.6,0.6,0.6,0.6,0.787368,0.787424,0.78748,0.78755,0.787626,0.787764,0.787905,0.788076,0.788253,0.788463,0.788676,0.788908,0.789145,0.789395,0.789649,0.789908,0.790169,0.790431,0.790693,0.790949,0.7912,0.791451,0.7917,0.791945,0.792188,0.792433,0.792675,0.792915,0.79315,0.793383,0.793617,0.79385,0.794089,0.79433,0.794576,0.794821,0.795073,0.795326,0.795586,0.79585,0.796127,0.796407,0.796701,0.797,0.797312,0.797627,0.797951,0.798277,0.798621,0.798964,0.799324,0.799686,0.800061,0.800434,0.800818,0.801204,0.801594,0.801985,0.80239,0.802793,0.803188,0.803589,0.803994,0.804398,0.804793,0.805188,0.805575,0.805956,0.806336,0.806717,0.807098,0.807471,0.807839,0.808206,0.808571,0.808937,0.809308,0.809676,0.810039,0.810411,0.810786,0.811158,0.811525,0.811898,0.812272,0.812654,0.813041,0.81343,0.81382,0.814197,0.814576,0.814957,0.815339,0.815712,0.816087,0.816449,0.816809,0.817159,0.817508,0.817845,0.818178,0.818495,0.81881,0.819116,0.819415,0.8197,0.819981,0.820249,0.820515,0.82077,0.821023,0.821268,0.82151,0.821745,0.821971,0.822189,0.822402,0.822608,0.82281,0.82301,0.823203,0.823391,0.823571,0.823749,0.823921,0.824088,0.82425,0.82441,0.824565,0.824717,0.824862,0.825005,0.825142,0.825278,0.825409,0.825538,0.825661,0.825784,0.825903,0.826021,0.826132,0.826244,0.826349,0.826453,0.826551,0.826648,0.826741,0.826832,0.826918,0.827003,0.827083,0.827161,0.827235,0.827307,0.827375,0.827442,0.827503,0.827563,0.827618,0.827671,0.827721,0.827768,0.827812,0.827854,0.827893,0.827929,0.827965,0.827996,0.828025,0.82805,0.828075,0.828097,0.828117,0.828134,0.828149,0.828161,0.828171,0.828178,0.828184,0.828187,0.828189,0.828186,0.828183,0.828176,0.828168,0.828157,0.828147,0.82813,0.828113,0.828091,0.828069,0.828043,0.828017,0.827987,0.827957,0.827923,0.827887,0.827849,0.827809,0.827765,0.827721,0.827675,0.827628,0.827577,0.827526,0.827474,0.827421,0.827367,0.827313,0.827258,0.827201,0.827144,0.827088,0.827031,0.826975,0.826918,0.826862,0.826804,0.826746,0.82669,0.826633,0.826576,0.826521,0.826466,0.826409,0.826352,0.826296,0.82624,0.826183,0.826127,0.82607,0.826012,0.825954,0.825895,0.825834,0.825773,0.825708,0.825643,0.825576,0.825509,0.825441,0.825374,0.825302,0.82523,0.825157,0.825083,0.825005,0.824926,0.824845,0.824761,0.824675,0.824587,0.824496,0.824402,0.824305,0.824205,0.824102,0.823998,0.823895,0.823793,0.82369,0.823584,0.823475,0.823347,0.823202,nan,nan,nan,nan,nan,nan,nan,nan,nan,nan,nan,nan,nan,nan,nan,nan,nan,nan,nan,nan,nan,nan,nan,nan,nan
0.7,0.7,0.7,0.7,0.7,0.7,0.7,0.7,0.7,0.7,0.7,0.7,0.7,0.8,0.8,0.8,0.8,0.8,0.8,0.8,0.8,0.8,0.8,0.8,0.8,0.8,0.8,0.8,0.8,0.8,0.8,0.8,0.8,0.8,0.8,0.8,0.8,0.8,0.8,0.8,0.8,0.8,0.8,0.8,0.8,0.8,0.8,0.8,0.8,0.8,0.8,0.8,0.8,0.8,0.8,0.8,0.8,0.8,0.8,0.8,0.8,0.8,0.8,0.8,0.8,0.8,0.8,0.8,0.8,0.8,0.8,0.8,0.8,0.8,0.8,0.8,0.8,0.8,0.8,0.8,0.8,0.8,0.8,0.8,0.8,0.8,0.8,0.8,0.8,0.8,0.8,0.8,0.8,0.8,0.8,0.8,0.8,0.8,0.8,0.8,0.8,0.8,0.8,0.8,0.8,0.8,0.8,0.8,0.8,0.8,0.8,0.8,0.8,0.8,0.8,0.8,0.8,0.8,0.8,0.8,0.8,0.8,0.8,0.8,0.8,0.8,0.8,0.8,0.8,0.8,0.8,0.8,0.8,0.8,0.8,0.8,0.8,0.8,0.8,0.8,0.8,0.8,0.8,0.8,0.8,0.8,0.8,0.8,0.8,0.8,0.8,0.8,0.8,0.8,0.8,0.8,0.8,0.8,0.8,0.8,0.8,0.8,0.8,0.8,0.8,0.8,0.8,0.8,0.8,0.8,0.8,0.8,0.8,0.8,0.8,0.8,0.8,0.8,0.8,0.8,0.8,0.8,0.8,0.8,0.8,0.8,0.8,0.8,0.8,0.8,0.8,0.8,0.8,0.8,0.8,0.8,0.8,0.8,0.8,0.8,0.8,0.8,0.8,0.8,0.8,0.8,0.8,0.8,0.8,0.8,0.8,0.8,0.8,0.8,0.8,0.8,0.8,0.8,0.8,0.8,0.8,0.8,0.8,0.8,0.8,0,0,0,0,0,0,0,0,0,0,0,0,0,0,0,0,0,0,0,0,0,0,0.7,0.7,0.7,0.7,0,0,0,0,0.7,0.7,0.7,0.7,0.7,0.7,0.7,0.7,0.7,0.7,0.7,0.7,0.7,0.7,0.7,0.7,0.7,0.7,0.7,0.7,0.7,0.7,0.7,0.7,0.7,0.7,0.7,0.7,0.7,0.7,0.7,0.7,0.7,0.7,0.7,0.7,0.7,0.7,0.7,0.7,0.7,0.7,0,0,0,0,0,0,0,0.7,0.7,0,0,0,0.6,0.6,0.6,0.6,0.6,0.6,0.6,0.6,0.6,0.6,0.6,0.6,0.6,0.6,0.6,0,0,0,0,0,0.6,0.6,0.6,0.6,0.6,0.6,0.6,0.6,0.6,0.6,0.787432,0.787489,0.787545,0.787617,0.787694,0.787834,0.787977,0.78815,0.78833,0.788543,0.788759,0.788993,0.789233,0.789486,0.789743,0.790007,0.79027,0.790532,0.790793,0.79105,0.791303,0.791555,0.791803,0.792049,0.792292,0.792537,0.792778,0.793018,0.793252,0.793484,0.793717,0.793949,0.794186,0.794425,0.794668,0.794911,0.795162,0.795414,0.795673,0.795937,0.796213,0.796492,0.796784,0.797079,0.79739,0.797703,0.798024,0.798349,0.79869,0.799029,0.799387,0.799746,0.800118,0.800488,0.800869,0.801251,0.801639,0.802026,0.802427,0.802826,0.803216,0.803613,0.804013,0.804411,0.804797,0.805187,0.805575,0.805955,0.806331,0.806709,0.807087,0.807456,0.807821,0.808185,0.808547,0.808908,0.809272,0.809638,0.810004,0.810376,0.810749,0.81112,0.811486,0.811857,0.81223,0.812609,0.812995,0.813382,0.81377,0.814146,0.814524,0.814899,0.815275,0.815647,0.816022,0.816384,0.816744,0.817095,0.817445,0.817787,0.818124,0.818442,0.818757,0.819061,0.819359,0.81965,0.819936,0.820205,0.820473,0.82073,0.820985,0.821232,0.821477,0.821713,0.821941,0.82216,0.822374,0.822581,0.822784,0.822984,0.823177,0.823365,0.823545,0.823722,0.823894,0.82406,0.824223,0.824382,0.824537,0.824689,0.824834,0.824977,0.825114,0.82525,0.82538,0.825509,0.825632,0.825755,0.825872,0.825988,0.8261,0.826213,0.826317,0.826421,0.826519,0.826617,0.826709,0.8268,0.826885,0.826969,0.827049,0.827126,0.827199,0.827271,0.827338,0.827403,0.827465,0.827524,0.827579,0.827631,0.82768,0.827726,0.827769,0.82781,0.827848,0.827884,0.827918,0.827949,0.827977,0.828002,0.828026,0.828047,0.828065,0.828081,0.828095,0.828106,0.828115,0.828122,0.828127,0.828128,0.828129,0.828126,0.828123,0.828116,0.828108,0.828097,0.828085,0.828068,0.828051,0.82803,0.828008,0.827983,0.827957,0.827926,0.827896,0.827861,0.827826,0.827787,0.827748,0.827704,0.82766,0.827615,0.827568,0.827519,0.827469,0.827417,0.827365,0.827311,0.827258,0.827203,0.827148,0.827092,0.827037,0.826981,0.826925,0.82687,0.826815,0.826759,0.826703,0.826648,0.826592,0.826537,0.826482,0.826427,0.826371,0.826314,0.82626,0.826205,0.826149,0.826093,0.826037,0.82598,0.825922,0.825864,0.825803,0.825742,0.825676,0.825611,0.825546,0.825481,0.825413,0.825346,0.825275,0.825204,0.825131,0.825058,0.824981,0.824902,0.82482,0.824736,0.82465,0.824561,0.824469,0.824374,0.824275,0.824174,0.82407,0.823965,0.823861,0.823757,0.823653,0.823541,0.823424,0.823284,0.823126,nan,nan,nan,nan,nan,nan,nan,nan,nan,nan,nan,nan,nan,nan,nan,nan,nan,nan,nan,nan,nan,nan,nan,nan,nan
0.7,0.7,0.7,0.7,0.7,0.7,0.7,0.7,0.7,0.7,0.7,0.7,0.8,0.8,0.8,0.8,0.8,0.8,0.8,0.8,0.8,0.8,0.8,0.8,0.8,0.8,0.8,0.8,0.8,0.8,0.8,0.8,0.8,0.8,0.8,0.8,0.8,0.8,0.8,0.8,0.8,0.8,0.8,0.8,0.8,0.8,0.8,0.8,0.8,0.8,0.8,0.8,0.8,0.8,0.8,0.8,0.8,0.8,0.8,0.8,0.8,0.8,0.8,0.8,0.8,0.8,0.8,0.8,0.8,0.8,0.8,0.8,0.8,0.8,0.8,0.8,0.8,0.8,0.8,0.8,0.8,0.8,0.8,0.8,0.8,0.8,0.8,0.8,0.8,0.8,0.8,0.8,0.8,0.8,0.8,0.8,0.8,0.8,0.8,0.8,0.8,0.8,0.8,0.8,0.8,0.8,0.8,0.8,0.8,0.8,0.8,0.8,0.8,0.8,0.8,0.8,0.8,0.8,0.8,0.8,0.8,0.8,0.8,0.8,0.8,0.8,0.8,0.8,0.8,0.8,0.8,0.8,0.8,0.8,0.8,0.8,0.8,0.8,0.8,0.8,0.8,0.8,0.8,0.8,0.8,0.8,0.8,0.8,0.8,0.8,0.8,0.8,0.8,0.8,0.8,0.8,0.8,0.8,0.8,0.8,0.8,0.8,0.8,0.8,0.8,0.8,0.8,0.8,0.8,0.8,0.8,0.8,0.8,0.8,0.8,0.8,0.8,0.8,0.8,0.8,0.8,0.8,0.8,0.8,0.8,0.8,0.8,0.8,0.8,0.8,0.8,0.8,0.8,0.8,0.8,0.8,0.8,0.8,0.8,0.8,0.8,0.8,0.8,0.8,0.8,0.8,0.8,0.8,0.8,0.8,0.8,0.8,0.8,0.8,0.8,0.8,0.8,0.8,0.8,0.8,0.8,0.8,0.8,0.8,0.8,0,0,0,0,0,0,0,0,0,0,0,0,0,0,0,0,0,0,0,0,0,0,0.7,0.7,0.7,0.7,0,0,0,0,0,0.7,0.7,0.7,0.7,0.7,0.7,0.7,0.7,0.7,0.7,0.7,0.7,0.7,0.7,0.7,0.7,0.7,0.7,0.7,0.7,0.7,0.7,0.7,0.7,0.7,0.7,0.7,0.7,0.7,0.7,0.7,0.7,0,0,0.7,0.7,0.7,0.7,0.7,0.7,0.7,0.7,0,0,0,0,0,0,0.7,0.7,0,0,0,0.6,0.6,0.6,0.6,0.6,0.6,0.6,0.6,0.6,0.6,0.6,0.6,0.6,0.6,0.6,0,0,0,0,0.6,0.6,0.6,0.6,0.6,0.6,0.6,0.6,0.6,0.6,0.6,0.787498,0.787556,0.787613,0.787686,0.787764,0.787907,0.788052,0.788228,0.78841,0.788627,0.788846,0.789083,0.789326,0.78958,0.789839,0.790106,0.790372,0.790634,0.790896,0.791155,0.791409,0.791662,0.791912,0.792157,0.7924,0.792645,0.792886,0.793125,0.793358,0.793589,0.793821,0.794052,0.794287,0.794524,0.794765,0.795006,0.795255,0.795507,0.795765,0.796027,0.796301,0.796578,0.796867,0.79716,0.797468,0.797779,0.798098,0.79842,0.79876,0.799098,0.799452,0.799809,0.800177,0.800543,0.80092,0.801298,0.801683,0.802068,0.802465,0.802859,0.803246,0.803637,0.804031,0.804422,0.804805,0.80519,0.805574,0.805952,0.806327,0.806701,0.807074,0.80744,0.807804,0.808166,0.808526,0.808883,0.809242,0.809607,0.809973,0.810344,0.810716,0.811084,0.811449,0.811819,0.81219,0.812567,0.812951,0.813334,0.813718,0.814094,0.814472,0.814845,0.815217,0.815586,0.815958,0.81632,0.81668,0.817032,0.817384,0.817728,0.818066,0.818387,0.818705,0.819008,0.819307,0.819599,0.819887,0.820158,0.820428,0.82069,0.820948,0.821197,0.821443,0.821679,0.821908,0.822129,0.822345,0.822554,0.822757,0.822958,0.823152,0.823339,0.823519,0.823697,0.823868,0.824035,0.824197,0.824356,0.82451,0.824662,0.824807,0.82495,0.825087,0.825222,0.825352,0.825481,0.825604,0.825726,0.825843,0.825959,0.826071,0.826183,0.826288,0.826392,0.82649,0.826587,0.826679,0.826769,0.826854,0.826938,0.827016,0.827093,0.827166,0.827237,0.827303,0.827367,0.827428,0.827487,0.827541,0.827593,0.82764,0.827685,0.827727,0.827767,0.827805,0.82784,0.827873,0.827903,0.82793,0.827955,0.827978,0.827997,0.828015,0.82803,0.828043,0.828053,0.828062,0.828067,0.828072,0.828072,0.828072,0.828069,0.828065,0.828057,0.828049,0.828036,0.828024,0.828007,0.82799,0.827969,0.827947,0.827921,0.827895,0.827865,0.827834,0.827799,0.827764,0.827725,0.827686,0.827643,0.827599,0.827553,0.827507,0.827458,0.827409,0.827359,0.827307,0.827254,0.827201,0.827147,0.827094,0.827039,0.826985,0.82693,0.826876,0.826822,0.826768,0.826713,0.826659,0.826605,0.826551,0.826498,0.826443,0.826388,0.826333,0.826278,0.826225,0.826172,0.826117,0.826061,0.826006,0.825949,0.825892,0.825834,0.825774,0.825713,0.825648,0.825584,0.82552,0.825455,0.825388,0.825321,0.825252,0.825182,0.825109,0.825036,0.824959,0.82488,0.824798,0.824715,0.824629,0.82454,0.824448,0.824352,0.824251,0.82415,0.824045,0.82394,0.823834,0.823728,0.823621,0.823502,0.823374,0.823223,0.823053,nan,nan,nan,nan,nan,nan,nan,nan,nan,nan,nan,nan,nan,nan,nan,nan,nan,nan,nan,nan,nan,nan,nan,nan,nan
0.7,0.7,0.7,0.7,0.7,0.7,0.7,0.7,0.7,0.7,0.7,0.7,0.8,0.8,0.8,0.8,0.8,0.8,0.8,0.8,0.8,0.8,0.8,0.8,0.8,0.8,0.8,0.8,0.8,0.8,0.8,0.8,0.8,0.8,0.8,0.8,0.8,0.8,0.8,0.8,0.8,0.8,0.8,0.8,0.8,0.8,0.8,0.8,0.8,0.8,0.8,0.8,0.8,0.8,0.8,0.8,0.8,0.8,0.8,0.8,0.8,0.8,0.8,0.8,0.8,0.8,0.8,0.8,0.8,0.8,0.8,0.8,0.8,0.8,0.8,0.8,0.8,0.8,0.8,0.8,0.8,0.8,0.8,0.8,0.8,0.8,0.8,0.8,0.8,0.8,0.8,0.8,0.8,0.8,0.8,0.8,0.8,0.8,0.8,0.8,0.8,0.8,0.8,0.8,0.8,0.8,0.8,0.8,0.8,0.8,0.8,0.8,0.8,0.8,0.8,0.8,0.8,0.8,0.8,0.8,0.8,0.8,0.8,0.8,0.8,0.8,0.8,0.8,0.8,0.8,0.8,0.8,0.8,0.8,0.8,0.8,0.8,0.8,0.8,0.8,0.8,0.8,0.8,0.8,0.8,0.8,0.8,0.8,0.8,0.8,0.8,0.8,0.8,0.8,0.8,0.8,0.8,0.8,0.8,0.8,0.8,0.8,0.8,0.8,0.8,0.8,0.8,0.8,0.8,0.8,0.8,0.8,0.8,0.8,0.8,0.8,0.8,0.8,0.8,0.8,0.8,0.8,0.8,0.8,0.8,0.8,0.8,0.8,0.8,0.8,0.8,0.8,0.8,0.8,0.8,0.8,0.8,0.8,0.8,0.8,0.8,0.8,0.8,0.8,0.8,0.8,0.8,0.8,0.8,0.8,0.8,0.8,0.8,0.8,0.8,0.8,0.8,0.8,0.8,0.8,0.8,0.8,0.8,0.8,0,0,0,0,0,0,0,0,0,0,0,0,0,0,0,0,0,0,0,0,0.7,0.7,0,0,0,0.7,0.7,0.7,0,0,0,0.7,0.7,0.7,0.7,0.7,0.7,0.7,0.7,0.7,0.7,0.7,0.7,0.7,0.7,0.7,0.7,0.7,0.7,0.7,0.7,0.7,0.7,0.7,0.7,0.7,0.7,0.7,0.7,0.7,0.7,0.7,0.7,0.7,0,0,0,0,0.7,0.7,0.7,0.7,0.7,0.7,0,0,0,0,0,0.7,0.7,0.7,0.7,0.7,0,0.7,0.6,0.6,0.6,0.6,0.6,0.6,0.6,0.6,0.6,0.6,0.6,0.6,0.6,0.6,0.6,0,0,0.6,0.6,0.6,0.6,0.6,0.6,0.6,0.6,0.6,0.6,0.6,0.6,0.787565,0.787624,0.787684,0.787758,0.787837,0.787982,0.78813,0.788308,0.788493,0.788714,0.788937,0.789178,0.789423,0.789678,0.789938,0.790207,0.790475,0.790739,0.791002,0.791262,0.791518,0.791774,0.792026,0.792271,0.792514,0.792757,0.792998,0.793237,0.793468,0.793699,0.793929,0.794158,0.794392,0.794627,0.794867,0.795106,0.795353,0.795602,0.795859,0.79612,0.796392,0.796666,0.796951,0.79724,0.797547,0.797854,0.798172,0.798492,0.798831,0.799168,0.79952,0.799873,0.800238,0.800601,0.800971,0.801344,0.801729,0.802112,0.802504,0.802894,0.803277,0.803662,0.804046,0.804431,0.804815,0.805197,0.805573,0.805947,0.806323,0.806695,0.807059,0.807422,0.807789,0.80815,0.808508,0.808862,0.809219,0.809582,0.809945,0.810314,0.810685,0.811051,0.811414,0.811782,0.812152,0.812527,0.812909,0.813287,0.813663,0.814041,0.814422,0.814794,0.815165,0.815529,0.815896,0.816258,0.816616,0.816971,0.817325,0.817668,0.818006,0.818331,0.818654,0.818958,0.819258,0.819549,0.819836,0.820109,0.820382,0.820648,0.820911,0.821162,0.821408,0.821642,0.821871,0.822097,0.822316,0.822526,0.82273,0.822933,0.823127,0.823315,0.823495,0.823673,0.823845,0.824012,0.824173,0.824331,0.824485,0.824636,0.824781,0.824924,0.82506,0.825196,0.825326,0.825455,0.825578,0.8257,0.825817,0.825933,0.826043,0.826155,0.82626,0.826365,0.826462,0.826559,0.82665,0.82674,0.826825,0.826909,0.826987,0.827063,0.827135,0.827205,0.82727,0.827334,0.827393,0.827451,0.827504,0.827555,0.827602,0.827647,0.827688,0.827727,0.827763,0.827797,0.827828,0.827857,0.827884,0.827908,0.827929,0.827949,0.827966,0.82798,0.827993,0.828002,0.828011,0.828015,0.828019,0.828019,0.828018,0.828013,0.828008,0.827999,0.82799,0.827977,0.827963,0.827946,0.827929,0.827907,0.827885,0.827859,0.827832,0.827802,0.827771,0.827736,0.827701,0.827662,0.827622,0.827579,0.827535,0.82749,0.827444,0.827397,0.827348,0.827299,0.827248,0.827195,0.827143,0.827091,0.827038,0.826986,0.826933,0.826879,0.826826,0.826773,0.826721,0.826668,0.826616,0.826563,0.82651,0.826458,0.826404,0.826351,0.826298,0.826245,0.826192,0.826139,0.826086,0.826032,0.825977,0.825921,0.825864,0.825807,0.825747,0.825688,0.825624,0.825561,0.825497,0.825432,0.825366,0.8253,0.825231,0.825162,0.82509,0.825017,0.824939,0.82486,0.824779,0.824697,0.824613,0.824525,0.824433,0.824336,0.824234,0.824132,0.824027,0.823922,0.823814,0.823706,0.823594,0.823467,0.823327,0.823165,0.822983,nan,nan,nan,nan,nan,nan,nan,nan,nan,nan,nan,nan,nan,nan,nan,nan,nan,nan,nan,nan,nan,nan,nan,nan,nan
0.7,0.7,0.7,0.7,0.7,0.7,0.7,0.7,0.7,0.7,0.7,0.7,0.8,0.8,0.8,0.8,0.8,0.8,0.8,0.8,0.8,0.8,0.8,0.8,0.8,0.8,0.8,0.8,0.8,0.8,0.8,0.8,0.8,0.8,0.8,0.8,0.8,0.8,0.8,0.8,0.8,0.8,0.8,0.8,0.8,0.8,0.8,0.8,0.8,0.8,0.8,0.8,0.8,0.8,0.8,0.8,0.8,0.8,0.8,0.8,0.8,0.8,0.8,0.8,0.8,0.8,0.8,0.8,0.8,0.8,0.8,0.8,0.8,0.8,0.8,0.8,0.8,0.8,0.8,0.8,0.8,0.8,0.8,0.8,0.8,0.8,0.8,0.8,0.8,0.8,0.8,0.8,0.8,0.8,0.8,0.8,0.8,0.8,0.8,0.8,0.8,0.8,0.8,0.8,0.8,0.8,0.8,0.8,0.8,0.8,0.8,0.8,0.8,0.8,0.8,0.8,0.8,0.8,0.8,0.8,0.8,0.8,0.8,0.8,0.8,0.8,0.8,0.8,0.8,0.8,0.8,0.8,0.8,0.8,0.8,0.8,0.8,0.8,0.8,0.8,0.8,0.8,0.8,0.8,0.8,0.8,0.8,0.8,0.8,0.8,0.8,0.8,0.8,0.8,0.8,0.8,0.8,0.8,0.8,0.8,0.8,0.8,0.8,0.8,0.8,0.8,0.8,0.8,0.8,0.8,0.8,0.8,0.8,0.8,0.8,0.8,0.8,0.8,0.8,0.8,0.8,0.8,0.8,0.8,0.8,0.8,0.8,0.8,0.8,0.8,0.8,0.8,0.8,0.8,0.8,0.8,0.8,0.8,0.8,0.8,0.8,0.8,0.8,0.8,0.8,0.8,0.8,0.8,0.8,0.8,0.8,0.8,0.8,0.8,0.8,0.8,0.8,0.8,0.8,0.8,0.8,0.8,0.8,0.8,0,0,0,0,0,0,0,0.7,0.7,0.7,0.7,0.7,0.7,0,0,0,0,0,0,0,0.7,0.7,0,0,0,0.7,0,0,0,0,0,0.7,0.7,0.7,0.7,0.7,0.7,0.7,0.7,0.7,0.7,0.7,0.7,0.7,0.7,0.7,0.7,0.7,0.7,0.7,0.7,0.7,0.7,0.7,0.7,0.7,0.7,0.7,0.7,0.7,0.7,0.7,0.7,0,0,0,0,0,0.7,0.7,0.7,0.7,0.7,0.7,0,0,0,0,0.7,0.7,0.7,0.7,0.7,0.7,0.7,0.7,0.6,0.6,0.6,0.6,0.6,0.6,0.6,0.6,0.6,0.6,0.6,0.6,0.6,0.6,0.6,0.6,0.6,0.6,0.6,0.6,0.6,0.6,0.6,0.6,0.6,0.6,0.6,0.6,0.6,nan,nan,nan,nan,0.787918,0.788066,0.788216,0.788397,0.788585,0.788809,0.789036,0.789282,0.789531,0.789788,0.79005,0.79032,0.790589,0.790856,0.791122,0.791383,0.79164,0.791897,0.792149,0.792394,0.792636,0.792879,0.793118,0.793353,0.793584,0.793814,0.794044,0.794272,0.794504,0.794737,0.794974,0.79521,0.795455,0.795704,0.795959,0.796218,0.796487,0.796759,0.797041,0.797327,0.797631,0.797937,0.798252,0.79857,0.798905,0.799239,0.799587,0.799938,0.800299,0.800658,0.801026,0.801396,0.801778,0.802158,0.802545,0.802932,0.80331,0.803691,0.80407,0.804449,0.804826,0.805204,0.805579,0.805951,0.806325,0.806693,0.807053,0.807413,0.807778,0.808138,0.808493,0.808845,0.809199,0.80956,0.809922,0.810287,0.810651,0.811015,0.811377,0.811746,0.812117,0.81249,0.812867,0.813243,0.813619,0.813993,0.814371,0.814742,0.815112,0.815473,0.815838,0.816202,0.816564,0.816919,0.817273,0.817614,0.817952,0.818276,0.818598,0.818907,0.81921,0.819501,0.819789,0.820064,0.820339,0.820608,0.820873,0.821126,0.821374,0.821609,0.82184,0.822067,0.822287,0.822497,0.822703,0.822906,0.823101,0.82329,0.823471,0.823648,0.82382,0.823987,0.824149,0.824308,0.824462,0.824612,0.824757,0.8249,0.825036,0.825172,0.825302,0.825431,0.825553,0.825676,0.825793,0.825909,0.826019,0.82613,0.826235,0.826339,0.826437,0.826534,0.826624,0.826713,0.826798,0.826881,0.826958,0.827034,0.827105,0.827175,0.827239,0.827302,0.827361,0.827417,0.827469,0.82752,0.827566,0.82761,0.827651,0.827689,0.827725,0.827758,0.827788,0.827816,0.827842,0.827865,0.827886,0.827904,0.82792,0.827933,0.827944,0.827953,0.827961,0.827964,0.827967,0.827966,0.827964,0.827959,0.827953,0.827944,0.827934,0.827919,0.827904,0.827887,0.827869,0.827846,0.827824,0.827797,0.82777,0.827739,0.827708,0.827672,0.827636,0.827597,0.827558,0.827515,0.827471,0.827427,0.827381,0.827334,0.827286,0.827238,0.827188,0.827136,0.827085,0.827034,0.826983,0.826932,0.82688,0.826828,0.826775,0.826724,0.826673,0.826622,0.826571,0.826521,0.82647,0.826418,0.826367,0.826316,0.826265,0.826213,0.826162,0.82611,0.826057,0.826004,0.82595,0.825895,0.825839,0.825782,0.825724,0.825666,0.825604,0.825542,0.825479,0.825415,0.82535,0.825285,0.825217,0.825147,0.825075,0.825002,0.824926,0.824848,0.824769,0.824687,0.824603,0.824515,0.824423,0.824328,0.824227,0.824124,0.824019,0.823911,0.823802,0.82369,0.823573,0.823437,0.823285,0.823109,nan,nan,nan,nan,nan,nan,nan,nan,nan,nan,nan,nan,nan,nan,nan,nan,nan,nan,nan,nan,nan,nan,nan,nan,nan,nan
0.7,0.7,0.7,0.7,0.7,0.7,0.7,0.7,0.7,0.7,0.7,0.7,0.8,0.8,0.8,0.8,0.8,0.8,0.8,0.8,0.8,0.8,0.8,0.8,0.8,0.8,0.8,0.8,0.8,0.8,0.8,0.8,0.8,0.8,0.8,0.8,0.8,0.8,0.8,0.8,0.8,0.8,0.8,0.8,0.8,0.8,0.8,0.8,0.8,0.8,0.8,0.8,0.8,0.8,0.8,0.8,0.8,0.8,0.8,0.8,0.8,0.8,0.8,0.8,0.8,0.8,0.8,0.8,0.8,0.8,0.8,0.8,0.8,0.8,0.8,0.8,0.8,0.8,0.8,0.8,0.8,0.8,0.8,0.8,0.8,0.8,0.8,0.8,0.8,0.8,0.8,0.8,0.8,0.8,0.8,0.8,0.8,0.8,0.8,0.8,0.8,0.8,0.8,0.8,0.8,0.8,0.8,0.8,0.8,0.8,0.8,0.8,0.8,0.8,0.8,0.8,0.8,0.8,0.8,0.8,0.8,0.8,0.8,0.8,0.8,0.8,0.8,0.8,0.8,0.8,0.8,0.8,0.8,0.8,0.8,0.8,0.8,0.8,0.8,0.8,0.8,0.8,0.8,0.8,0.8,0.8,0.8,0.8,0.8,0.8,0.8,0.8,0.8,0.8,0.8,0.8,0.8,0.8,0.8,0.8,0.8,0.8,0.8,0.8,0.8,0.8,0.8,0.8,0.8,0.8,0.8,0.8,0.8,0.8,0.8,0.8,0.8,0.8,0.8,0.8,0.8,0.8,0.8,0.8,0.8,0.8,0.8,0.8,0.8,0.8,0.8,0.8,0.8,0.8,0.8,0.8,0.8,0.8,0.8,0.8,0.8,0.8,0.8,0.8,0.8,0.8,0.8,0.8,0.8,0.8,0.8,0.8,0.8,0.8,0.8,0.8,0.8,0.8,0.8,0.8,0.8,0.8,0.8,0.8,0,0,0,0,0,0,0,0.7,0.7,0.7,0.7,0.7,0.7,0,0,0,0,0,0,0,0.7,0.7,0.7,0.7,0.7,0.7,0,0,0,0.7,0.7,0.7,0.7,0.7,0.7,0.7,0.7,0.7,0.7,0.7,0.7,0.7,0.7,0.7,0.7,0.7,0.7,0.7,0.7,0.7,0.7,0.7,0.7,0.7,0.7,0.7,0.7,0.7,0.7,0,0,0,0.7,0,0,0,0,0.7,0.7,0.7,0.7,0.7,0.7,0.7,0.7,0,0,0,0.7,0.7,0.7,0.7,0.7,0.7,0.7,0.7,0.7,0.6,0.6,0,0,0,0,0.6,0.6,0.6,0.6,0.6,0.6,0.6,0.6,0.6,0.6,0.6,0.6,0.6,0.6,0,0.6,0.6,0.6,0.6,0.6,0.6,0.6,nan,nan,nan,nan,0.787999,0.78815,0.788304,0.788489,0.78868,0.788907,0.789137,0.789388,0.789641,0.789902,0.790166,0.790435,0.790706,0.790978,0.791247,0.791508,0.791765,0.792023,0.792274,0.792519,0.79276,0.793002,0.793238,0.79347,0.7937,0.793931,0.79416,0.794386,0.794616,0.794848,0.795082,0.795315,0.795559,0.795806,0.796059,0.796316,0.796584,0.796853,0.797132,0.797415,0.797717,0.79802,0.798333,0.798648,0.79898,0.799309,0.799655,0.800002,0.800359,0.800715,0.801081,0.801449,0.801827,0.802204,0.802587,0.802969,0.803344,0.803721,0.804096,0.80447,0.804838,0.805211,0.805587,0.805958,0.806329,0.806693,0.807051,0.807407,0.80777,0.808127,0.80848,0.808829,0.809182,0.80954,0.8099,0.81026,0.810618,0.810979,0.811338,0.811709,0.812083,0.812453,0.812825,0.813201,0.813578,0.813948,0.814321,0.81469,0.815059,0.815419,0.815782,0.81615,0.816515,0.816869,0.817223,0.817564,0.8179,0.818221,0.818541,0.818855,0.819163,0.819456,0.819745,0.820022,0.820298,0.820569,0.820836,0.821091,0.82134,0.821578,0.82181,0.822039,0.82226,0.82247,0.822675,0.822879,0.823075,0.823264,0.823446,0.823623,0.823795,0.823962,0.824125,0.824286,0.82444,0.824591,0.824735,0.824876,0.825013,0.825149,0.825278,0.825407,0.82553,0.825652,0.82577,0.825887,0.825996,0.826106,0.826211,0.826314,0.826412,0.826509,0.826599,0.826688,0.826771,0.826854,0.82693,0.827005,0.827076,0.827145,0.827209,0.827272,0.827329,0.827385,0.827436,0.827485,0.827531,0.827574,0.827614,0.827652,0.827688,0.827721,0.82775,0.827777,0.827803,0.827825,0.827844,0.82786,0.827874,0.827886,0.827896,0.827905,0.827912,0.827915,0.827916,0.827913,0.82791,0.827905,0.827899,0.827889,0.827879,0.827863,0.827847,0.827828,0.827808,0.827786,0.827764,0.827737,0.827709,0.827677,0.827645,0.827609,0.827572,0.827533,0.827494,0.827451,0.827408,0.827363,0.827318,0.827272,0.827225,0.827177,0.827129,0.827078,0.827028,0.826979,0.826928,0.826878,0.826828,0.826776,0.826725,0.826674,0.826625,0.826576,0.826527,0.826479,0.826429,0.82638,0.826331,0.826282,0.826233,0.826183,0.826133,0.826082,0.82603,0.825977,0.825924,0.825871,0.825815,0.825759,0.825702,0.825645,0.825585,0.825525,0.825462,0.8254,0.825336,0.825273,0.825204,0.825134,0.825062,0.824989,0.824915,0.824839,0.824761,0.82468,0.824595,0.824508,0.824416,0.824322,0.824222,0.82412,0.824013,0.823903,0.823792,0.823676,0.823555,0.82341,0.823246,0.823056,nan,nan,nan,nan,nan,nan,nan,nan,nan,nan,nan,nan,nan,nan,nan,nan,nan,nan,nan,nan,nan,nan,nan,nan,nan,nan
0.7,0.7,0.7,0.7,0.7,0.7,0.7,0.7,0.7,0.7,0.7,0.8,0.8,0.8,0.8,0.8,0.8,0.8,0.8,0.8,0.8,0.8,0.8,0.8,0.8,0.8,0.8,0.8,0.8,0.8,0.8,0.8,0.8,0.8,0.8,0.8,0.8,0.8,0.8,0.8,0.8,0.8,0.8,0.8,0.8,0.8,0.8,0.8,0.8,0.8,0.8,0.8,0.8,0.8,0.8,0.8,0.8,0.8,0.8,0.8,0.8,0.8,0.8,0.8,0.8,0.8,0.8,0.8,0.8,0.8,0.8,0.8,0.8,0.8,0.8,0.8,0.8,0.8,0.8,0.8,0.8,0.8,0.8,0.8,0.8,0.8,0.8,0.8,0.8,0.8,0.8,0.8,0.8,0.8,0.8,0.8,0.8,0.8,0.8,0.8,0.8,0.8,0.8,0.8,0.8,0.8,0.8,0.8,0.8,0.8,0.8,0.8,0.8,0.8,0.8,0.8,0.8,0.8,0.8,0.8,0.8,0.8,0.8,0.8,0.8,0.8,0.8,0.8,0.8,0.8,0.8,0.8,0.8,0.8,0.8,0.8,0.8,0.8,0.8,0.8,0.8,0.8,0.8,0.8,0.8,0.8,0.8,0.8,0.8,0.8,0.8,0.8,0.8,0.8,0.8,0.8,0.8,0.8,0.8,0.8,0.8,0.8,0.8,0.8,0.8,0.8,0.8,0.8,0.8,0.8,0.8,0.8,0.8,0.8,0.8,0.8,0.8,0.8,0.8,0.8,0.8,0.8,0.8,0.8,0.8,0.8,0.8,0.8,0.8,0.8,0.8,0.8,0.8,0.8,0.8,0.8,0.8,0.8,0.8,0.8,0.8,0.8,0.8,0.8,0.8,0.8,0.8,0.8,0.8,0.8,0.8,0.8,0.8,0.8,0.8,0.8,0.8,0.8,0.8,0.8,0.8,0.8,0.8,0,0,0,0,0,0,0,0,0,0,0.7,0.7,0,0,0,0,0,0,0,0,0,0.7,0.7,0.7,0.7,0.7,0.7,0,0,0,0.7,0.7,0.7,0.7,0.7,0.7,0.7,0.7,0.7,0.7,0.7,0.7,0.7,0.7,0.7,0.7,0.7,0.7,0.7,0,0.7,0.7,0.7,0.7,0.7,0.7,0.7,0.7,0.7,0,0,0,0,0.7,0.7,0,0,0,0.7,0.7,0.7,0.7,0.7,0.7,0.7,0,0,0,0.7,0.7,0.7,0.7,0.7,0.7,0.7,0.7,0.7,0.7,0.7,0.6,0,0,0,0,0.6,0.6,0.6,0.6,0.6,0.6,0.6,0.6,0.6,0.6,0.6,0.6,0.6,0.6,0,0.6,0.6,0.6,0.6,0.6,0.6,0.6,nan,nan,nan,nan,nan,0.788136,0.78829,0.788512,0.788741,0.789,0.789256,0.789508,0.789765,0.79003,0.790299,0.790573,0.790846,0.791116,0.791385,0.791646,0.791903,0.792161,0.792411,0.792655,0.792895,0.793136,0.79337,0.7936,0.793828,0.794058,0.794285,0.794509,0.794737,0.794966,0.795198,0.795429,0.795671,0.795915,0.796165,0.796418,0.796683,0.796952,0.797229,0.797509,0.797808,0.798108,0.798417,0.79873,0.799058,0.799384,0.799727,0.800071,0.800424,0.800777,0.801139,0.801504,0.801879,0.802251,0.802627,0.803002,0.803373,0.803745,0.804116,0.804488,0.804857,0.80523,0.805602,0.805968,0.80633,0.806692,0.807051,0.807406,0.807761,0.808116,0.808471,0.808821,0.809171,0.809525,0.809879,0.810238,0.810599,0.810961,0.811321,0.81169,0.812063,0.812429,0.812797,0.813168,0.813539,0.813906,0.814277,0.814648,0.815019,0.815378,0.815739,0.816104,0.816466,0.816823,0.817178,0.817515,0.817848,0.818173,0.818497,0.818808,0.819114,0.819411,0.819704,0.819981,0.820259,0.820531,0.820799,0.821056,0.821307,0.821545,0.821779,0.822009,0.822231,0.822442,0.822647,0.822849,0.823045,0.823236,0.823418,0.823598,0.82377,0.823938,0.824101,0.824262,0.824417,0.824568,0.824712,0.824854,0.82499,0.825127,0.825257,0.825385,0.825508,0.825632,0.825749,0.825866,0.825975,0.826085,0.82619,0.826293,0.82639,0.826486,0.826576,0.826664,0.826747,0.826829,0.826906,0.82698,0.827051,0.827119,0.827182,0.827244,0.827301,0.827356,0.827406,0.827455,0.8275,0.827543,0.827582,0.827619,0.827654,0.827686,0.827715,0.827741,0.827765,0.827786,0.827805,0.827821,0.827834,0.827845,0.827854,0.827861,0.827866,0.827868,0.827868,0.827865,0.827862,0.827855,0.827848,0.827837,0.827825,0.827809,0.827793,0.827773,0.827753,0.82773,0.827706,0.827678,0.827649,0.827617,0.827584,0.827548,0.82751,0.827471,0.827431,0.827389,0.827346,0.827302,0.827257,0.827211,0.827164,0.827117,0.827069,0.82702,0.826971,0.826923,0.826874,0.826825,0.826776,0.826726,0.826677,0.826629,0.826581,0.826534,0.826487,0.82644,0.826393,0.826345,0.826298,0.826251,0.826203,0.826154,0.826105,0.826055,0.826004,0.825953,0.825901,0.825848,0.825794,0.82574,0.825684,0.825628,0.825569,0.825511,0.825451,0.82539,0.825328,0.825265,0.825197,0.825128,0.825057,0.824986,0.824912,0.824836,0.824757,0.824676,0.82459,0.824503,0.824413,0.824319,0.824218,0.824116,0.824011,0.823903,0.823792,0.823673,0.823543,0.823384,0.823202,nan,nan,nan,nan,nan,nan,nan,nan,nan,nan,nan,nan,nan,nan,nan,nan,nan,nan,nan,nan,nan,nan,nan,nan,nan,nan,nan
0.7,0.7,0.7,0.7,0.7,0.7,0.7,0.7,0.7,0.7,0.7,0.8,0.8,0.8,0.8,0.8,0.8,0.8,0.8,0.8,0.8,0.8,0.8,0.8,0.8,0.8,0.8,0.8,0.8,0.8,0.8,0.8,0.8,0.8,0.8,0.8,0.8,0.8,0.8,0.8,0.8,0.8,0.8,0.8,0.8,0.8,0.8,0.8,0.8,0.8,0.8,0.8,0.8,0.8,0.8,0.8,0.8,0.8,0.8,0.8,0.8,0.8,0.8,0.8,0.8,0.8,0.8,0.8,0.8,0.8,0.8,0.8,0.8,0.8,0.8,0.8,0.8,0.8,0.8,0.8,0.8,0.8,0.8,0.8,0.8,0.8,0.8,0.8,0.8,0.8,0.8,0.8,0.8,0.8,0.8,0.8,0.8,0.8,0.8,0.8,0.8,0.8,0.8,0.8,0.8,0.8,0.8,0.8,0.8,0.8,0.8,0.8,0.8,0.8,0.8,0.8,0.8,0.8,0.8,0.8,0.8,0.8,0.8,0.8,0.8,0.8,0.8,0.8,0.8,0.8,0.8,0.8,0.8,0.8,0.8,0.8,0.8,0.8,0.8,0.8,0.8,0.8,0.8,0.8,0.8,0.8,0.8,0.8,0.8,0.8,0.8,0.8,0.8,0.8,0.8,0.8,0.8,0.8,0.8,0.8,0.8,0.8,0.8,0.8,0.8,0.8,0.8,0.8,0.8,0.8,0.8,0.8,0.8,0.8,0.8,0.8,0.8,0.8,0.8,0.8,0.8,0.8,0.8,0.8,0.8,0.8,0.8,0.8,0.8,0.8,0.8,0.8,0.8,0.8,0.8,0.8,0.8,0.8,0.8,0.8,0.8,0.8,0.8,0.8,0.8,0.8,0.8,0.8,0.8,0.8,0.8,0.8,0.8,0.8,0.8,0.8,0.8,0.8,0.8,0.8,0.8,0.8,0,0,0,0.8,0.8,0,0.8,0.7,0,0,0,0,0,0,0,0,0,0,0,0,0,0,0.7,0.7,0.7,0.7,0.7,0.7,0,0,0,0.7,0.7,0.7,0.7,0.7,0.7,0.7,0.7,0.7,0.7,0.7,0.7,0.7,0.7,0.7,0.7,0.7,0.7,0.7,0,0,0.7,0.7,0.7,0.7,0.7,0.7,0,0,0,0,0,0,0.7,0.7,0.7,0.7,0.7,0.7,0.7,0.7,0.7,0.7,0.7,0,0,0,0.7,0.7,0.7,0.7,0.7,0.7,0.7,0.7,0.7,0.7,0.7,0.7,0.7,0,0,0,0,0,0,0,0.6,0.6,0.6,0.6,0.6,0.6,0.6,0.6,0.6,0.6,0.6,0,0,0.6,0.6,0.6,0.6,0.6,0.6,nan,nan,nan,nan,nan,nan,0.788265,0.788524,0.788789,0.789084,0.789371,0.789631,0.789895,0.790163,0.790436,0.790713,0.790989,0.791259,0.791527,0.791789,0.792046,0.792303,0.792553,0.792795,0.793034,0.793272,0.793505,0.793734,0.79396,0.794187,0.794412,0.794634,0.79486,0.795087,0.795316,0.795545,0.795785,0.796027,0.796273,0.796522,0.796786,0.797053,0.797326,0.797604,0.797899,0.798196,0.798503,0.798812,0.799137,0.799461,0.7998,0.80014,0.80049,0.80084,0.801199,0.80156,0.801931,0.802299,0.802669,0.803038,0.803404,0.803773,0.804142,0.804511,0.80488,0.80525,0.805619,0.80598,0.806336,0.806694,0.807054,0.807407,0.807756,0.808109,0.808465,0.808814,0.809163,0.809513,0.809861,0.810219,0.810583,0.810945,0.811304,0.811672,0.812043,0.812406,0.812771,0.813137,0.813504,0.813869,0.814237,0.814608,0.81498,0.815338,0.815699,0.816061,0.816421,0.816778,0.817134,0.817468,0.817799,0.818127,0.818453,0.818762,0.819067,0.819367,0.819662,0.819942,0.820221,0.820494,0.820763,0.82102,0.821272,0.821513,0.821748,0.821979,0.822202,0.822414,0.822619,0.82282,0.823016,0.823207,0.823391,0.823572,0.823746,0.823914,0.824078,0.824239,0.824394,0.824546,0.82469,0.824832,0.824968,0.825105,0.825235,0.825364,0.825487,0.825611,0.825729,0.825846,0.825955,0.826065,0.826169,0.826272,0.826368,0.826464,0.826553,0.826641,0.826724,0.826805,0.826881,0.826956,0.827026,0.827094,0.827156,0.827217,0.827273,0.827328,0.827378,0.827426,0.82747,0.827512,0.82755,0.827587,0.82762,0.827651,0.82768,0.827706,0.827729,0.827749,0.827767,0.827782,0.827795,0.827805,0.827813,0.827818,0.827822,0.827823,0.827822,0.827819,0.827814,0.827807,0.827798,0.827786,0.827773,0.827757,0.827739,0.827719,0.827698,0.827673,0.827648,0.827619,0.827589,0.827556,0.827524,0.827487,0.827449,0.82741,0.82737,0.827327,0.827284,0.827241,0.827196,0.82715,0.827104,0.827058,0.82701,0.826962,0.826915,0.826868,0.82682,0.826773,0.826725,0.826677,0.82663,0.826584,0.826538,0.826492,0.826447,0.826402,0.826357,0.826311,0.826265,0.82622,0.826173,0.826126,0.826078,0.826029,0.825979,0.82593,0.825879,0.825827,0.825775,0.825722,0.825667,0.825612,0.825555,0.825498,0.825439,0.825381,0.825319,0.825257,0.82519,0.825122,0.825053,0.824983,0.824909,0.824834,0.824755,0.824673,0.824588,0.824501,0.824411,0.824317,0.824216,0.824115,0.824011,0.823903,0.823793,0.823669,0.82353,0.823357,0.823157,nan,nan,nan,nan,nan,nan,nan,nan,nan,nan,nan,nan,nan,nan,nan,nan,nan,nan,nan,nan,nan,nan,nan,nan,nan,nan,nan
0.7,0.7,0.7,0.7,0.7,0.7,0.7,0.7,0.7,0.7,0.7,0.8,0.8,0.8,0.8,0.8,0.8,0.8,0.8,0.8,0.8,0.8,0.8,0.8,0.8,0.8,0.8,0.8,0.8,0.8,0.8,0.8,0.8,0.8,0.8,0.8,0.8,0.8,0.8,0.8,0.8,0.8,0.8,0.8,0.8,0.8,0.8,0.8,0.8,0.8,0.8,0.8,0.8,0.8,0.8,0.8,0.8,0.8,0.8,0.8,0.8,0.8,0.8,0.8,0.8,0.8,0.8,0.8,0.8,0.8,0.8,0.8,0.8,0.8,0.8,0.8,0.8,0.8,0.8,0.8,0.8,0.8,0.8,0.8,0.8,0.8,0.8,0.8,0.8,0.8,0.8,0.8,0.8,0.8,0.8,0.8,0.8,0.8,0.8,0.8,0.8,0.8,0.8,0.8,0.8,0.8,0.8,0.8,0.8,0.8,0.8,0.8,0.8,0.8,0.8,0.8,0.8,0.8,0.8,0.8,0.8,0.8,0.8,0.8,0.8,0.8,0.8,0.8,0.8,0.8,0.8,0.8,0.8,0.8,0.8,0.8,0.8,0.8,0.8,0.8,0.8,0.8,0.8,0.8,0.8,0.8,0.8,0.8,0.8,0.8,0.8,0.8,0.8,0.8,0.8,0.8,0.8,0.8,0.8,0.8,0.8,0.8,0.8,0.8,0.8,0.8,0.8,0.8,0.8,0.8,0.8,0.8,0.8,0.8,0.8,0.8,0.8,0.8,0.8,0.8,0.8,0.8,0.8,0.8,0.8,0.8,0.8,0.8,0.8,0.8,0.8,0.8,0.8,0.8,0.8,0.8,0.8,0.8,0.8,0.8,0.8,0.8,0.8,0.8,0.8,0.8,0.8,0.8,0.8,0.8,0.8,0.8,0.8,0.8,0.8,0.8,0.8,0.8,0.8,0.8,0.8,0.8,0.8,0,0,0.8,0.8,0.8,0.8,0.7,0,0,0,0.7,0,0,0,0,0,0.7,0,0,0,0,0,0.7,0.7,0.7,0.7,0.7,0,0,0,0.7,0.7,0.7,0.7,0.7,0.7,0.7,0.7,0.7,0.7,0.7,0.7,0.7,0.7,0.7,0.7,0.7,0.7,0.7,0,0,0.7,0.7,0.7,0.7,0.7,0.7,0.7,0.7,0.7,0.7,0.7,0.7,0.7,0.7,0.7,0.7,0.7,0.7,0.7,0.7,0.7,0.7,0.7,0.7,0,0,0,0,0,0.7,0.7,0.7,0.7,0.7,0.7,0.7,0.7,0.7,0.7,0.7,0.6,0.6,0,0,0,0,0.6,0.6,0.6,0.6,0.6,0.6,0.6,0.6,0.6,0.6,0,0,0,0.6,0.6,0.6,0.6,0.6,0.6,nan,nan,nan,nan,nan,nan,0.788207,0.788497,0.788797,0.789139,0.789468,0.789757,0.790042,0.790309,0.790581,0.790859,0.791137,0.79141,0.79168,0.791941,0.792198,0.792453,0.792702,0.792943,0.793179,0.793413,0.793644,0.793873,0.794097,0.79432,0.794542,0.794764,0.794987,0.79521,0.795438,0.795665,0.795902,0.796141,0.796384,0.796631,0.796891,0.797155,0.797426,0.7977,0.79799,0.798282,0.798588,0.798896,0.799218,0.799538,0.799873,0.80021,0.800557,0.800903,0.801259,0.801616,0.801984,0.802348,0.802714,0.803081,0.803444,0.803811,0.804181,0.804549,0.80491,0.805274,0.80564,0.805998,0.806351,0.806707,0.807065,0.807415,0.807762,0.808113,0.808468,0.808815,0.809162,0.80951,0.809856,0.810212,0.810574,0.810934,0.811292,0.811658,0.812026,0.812388,0.812751,0.813116,0.813481,0.813844,0.814209,0.814578,0.814949,0.815306,0.815665,0.816028,0.816389,0.816742,0.817095,0.817428,0.817759,0.818088,0.818414,0.818722,0.819027,0.819324,0.819619,0.819903,0.820187,0.820461,0.82073,0.820984,0.821235,0.82148,0.821717,0.821949,0.822172,0.822385,0.822591,0.822793,0.822989,0.82318,0.823364,0.823545,0.82372,0.82389,0.824054,0.824215,0.824371,0.824523,0.824668,0.824811,0.824947,0.825083,0.825214,0.825343,0.825468,0.825593,0.82571,0.825826,0.825935,0.826045,0.826148,0.82625,0.826348,0.826444,0.826532,0.82662,0.826702,0.826783,0.826859,0.826932,0.827002,0.82707,0.827131,0.827191,0.827246,0.8273,0.82735,0.827398,0.827442,0.827482,0.827521,0.827556,0.827589,0.827619,0.827647,0.827672,0.827695,0.827714,0.827731,0.827746,0.827758,0.827768,0.827775,0.82778,0.827783,0.827783,0.827781,0.827777,0.827771,0.827762,0.827753,0.82774,0.827726,0.827707,0.827689,0.827667,0.827645,0.827619,0.827593,0.827563,0.827532,0.827499,0.827466,0.827428,0.82739,0.827351,0.827311,0.827268,0.827226,0.827182,0.827138,0.827092,0.827046,0.827,0.826954,0.826908,0.826861,0.826815,0.826769,0.826723,0.826677,0.826631,0.826586,0.826541,0.826497,0.826452,0.826409,0.826366,0.826322,0.826279,0.826234,0.826189,0.826144,0.826099,0.826053,0.826008,0.825959,0.82591,0.82586,0.82581,0.825759,0.825709,0.825655,0.825601,0.825544,0.825488,0.825429,0.825371,0.825309,0.825248,0.825184,0.825119,0.82505,0.824981,0.824908,0.824834,0.824757,0.824677,0.824592,0.824505,0.824414,0.82432,0.824221,0.824121,0.824016,0.823908,0.823796,0.823665,0.823514,0.823328,nan,nan,nan,nan,nan,nan,nan,nan,nan,nan,nan,nan,nan,nan,nan,nan,nan,nan,nan,nan,nan,nan,nan,nan,nan,nan,nan,nan
0.7,0.7,0.7,0.7,0.7,0.7,0.7,0.7,0.7,0.7,0.7,0.8,0.8,0.8,0.8,0.8,0.8,0.8,0.8,0.8,0.8,0.8,0.8,0.8,0.8,0.8,0.8,0.8,0.8,0.8,0.8,0.8,0.8,0.8,0.8,0.8,0.8,0.8,0.8,0.8,0.8,0.8,0.8,0.8,0.8,0.8,0.8,0.8,0.8,0.8,0.8,0.8,0.8,0.8,0.8,0.8,0.8,0.8,0.8,0.8,0.8,0.8,0.8,0.8,0.8,0.8,0.8,0.8,0.8,0.8,0.8,0.8,0.8,0.8,0.8,0.8,0.8,0.8,0.8,0.8,0.8,0.8,0.8,0.8,0.8,0.8,0.8,0.8,0.8,0.8,0.8,0.8,0.8,0.8,0.8,0.8,0.8,0.8,0.8,0.8,0.8,0.8,0.8,0.8,0.8,0.8,0.8,0.8,0.8,0.8,0.8,0.8,0.8,0.8,0.8,0.8,0.8,0.8,0.8,0.8,0.8,0.8,0.8,0.8,0.8,0.8,0.8,0.8,0.8,0.8,0.8,0.8,0.8,0.8,0.8,0.8,0.8,0.8,0.8,0.8,0.8,0.8,0.8,0.8,0.8,0.8,0.8,0.8,0.8,0.8,0.8,0.8,0.8,0.8,0.8,0.8,0.8,0.8,0.8,0.8,0.8,0.8,0.8,0.8,0.8,0.8,0.8,0.8,0.8,0.8,0.8,0.8,0.8,0.8,0.8,0.8,0.8,0.8,0.8,0.8,0.8,0.8,0.8,0.8,0.8,0.8,0.8,0.8,0.8,0.8,0.8,0.8,0.8,0.8,0.8,0.8,0.8,0.8,0.8,0.8,0.8,0.8,0.8,0.8,0.8,0.8,0.8,0.8,0.8,0.8,0.8,0.8,0.8,0.8,0.8,0.8,0.8,0.8,0.8,0.8,0.8,0.8,0.8,0,0,0.8,0.8,0.8,0,0,0,0,0,0.7,0,0,0,0,0,0,0,0,0,0,0,0.7,0.7,0.7,0.7,0.7,0,0,0,0.7,0.7,0.7,0.7,0.7,0.7,0.7,0.7,0.7,0.7,0.7,0.7,0.7,0.7,0.7,0.7,0.7,0.7,0.7,0,0,0.7,0.7,0.7,0.7,0.7,0.7,0.7,0.7,0.7,0.7,0.7,0.7,0.7,0.7,0.7,0.7,0.7,0.7,0.7,0.7,0.7,0.7,0.7,0.7,0,0,0,0,0,0.7,0.7,0.7,0.7,0.7,0.7,0.7,0.7,0.7,0.7,0.7,0.7,0.6,0,0,0,0,0,0.6,0.6,0.6,0.6,0.6,0.6,0,0,0,0,0,0,0.6,0.6,0.6,0,0,0,0.787217,0.78734,0.787463,nan,nan,nan,nan,0.788534,0.788867,0.789237,0.789591,0.789896,0.790192,0.790464,0.790739,0.791018,0.791295,0.79157,0.79184,0.7921,0.792355,0.792609,0.792857,0.793096,0.793329,0.79356,0.793789,0.794016,0.794237,0.794457,0.794677,0.794896,0.795116,0.795338,0.795563,0.795788,0.796021,0.796256,0.796497,0.796741,0.796998,0.797257,0.797526,0.797798,0.798084,0.798371,0.798673,0.798979,0.799298,0.799616,0.799948,0.800281,0.800625,0.800967,0.801319,0.801673,0.802036,0.802396,0.80276,0.803124,0.803484,0.803849,0.804218,0.804584,0.80494,0.8053,0.805663,0.806019,0.80637,0.806723,0.807079,0.807427,0.807773,0.808122,0.808475,0.80882,0.809165,0.809511,0.809855,0.81021,0.81057,0.81093,0.811289,0.811652,0.812016,0.812375,0.812737,0.8131,0.813464,0.813824,0.814187,0.814554,0.814922,0.815278,0.815637,0.816,0.81636,0.81671,0.817058,0.817392,0.817724,0.818052,0.818378,0.818686,0.81899,0.819286,0.819581,0.819868,0.820154,0.820429,0.820698,0.82095,0.821202,0.821449,0.821687,0.821918,0.822142,0.822357,0.822564,0.822767,0.822963,0.823154,0.823339,0.82352,0.823696,0.823867,0.824031,0.824191,0.824347,0.824499,0.824645,0.824789,0.824926,0.825062,0.825193,0.825323,0.825448,0.825573,0.82569,0.825806,0.825915,0.826025,0.826128,0.826229,0.826326,0.826423,0.826511,0.826598,0.82668,0.826761,0.826836,0.826909,0.826979,0.827046,0.827107,0.827166,0.827221,0.827275,0.827324,0.827371,0.827414,0.827454,0.827492,0.827527,0.827559,0.827589,0.827616,0.82764,0.827662,0.827681,0.827698,0.827711,0.827724,0.827732,0.827739,0.827743,0.827746,0.827745,0.827742,0.827736,0.82773,0.82772,0.82771,0.827695,0.82768,0.827661,0.827641,0.827618,0.827595,0.827568,0.827541,0.82751,0.827478,0.827445,0.827411,0.827373,0.827334,0.827294,0.827254,0.827212,0.827169,0.827126,0.827082,0.827036,0.826991,0.826946,0.826901,0.826856,0.826811,0.826765,0.82672,0.826676,0.826632,0.826587,0.826544,0.826501,0.826458,0.826415,0.826373,0.826331,0.826289,0.826247,0.826204,0.826161,0.826117,0.826073,0.82603,0.825986,0.825939,0.825892,0.825843,0.825794,0.825744,0.825695,0.825642,0.82559,0.825534,0.825479,0.825421,0.825363,0.825303,0.825242,0.825179,0.825116,0.825048,0.82498,0.824908,0.824835,0.824759,0.82468,0.824595,0.824508,0.824417,0.824323,0.824225,0.824125,0.82402,0.82391,0.823794,0.823654,0.823487,0.823285,nan,nan,nan,nan,nan,nan,nan,nan,nan,nan,nan,nan,nan,nan,nan,nan,nan,nan,nan,nan,nan,nan,nan,nan,nan,nan,nan,nan
0.7,0.7,0.7,0.7,0.7,0.7,0.7,0.7,0.7,0.7,0.8,0.8,0.8,0.8,0.8,0.8,0.8,0.8,0.8,0.8,0.8,0.8,0.8,0.8,0.8,0.8,0.8,0.8,0.8,0.8,0.8,0.8,0.8,0.8,0.8,0.8,0.8,0.8,0.8,0.8,0.8,0.8,0.8,0.8,0.8,0.8,0.8,0.8,0.8,0.8,0.8,0.8,0.8,0.8,0.8,0.8,0.8,0.8,0.8,0.8,0.8,0.8,0.8,0.8,0.8,0.8,0.8,0.8,0.8,0.8,0.8,0.8,0.8,0.8,0.8,0.8,0.8,0.8,0.8,0.8,0.8,0.8,0.8,0.8,0.8,0.8,0.8,0.8,0.8,0.8,0.8,0.8,0.8,0.8,0.8,0.8,0.8,0.8,0.8,0.8,0.8,0.8,0.8,0.8,0.8,0.8,0.8,0.8,0.8,0.8,0.8,0.8,0.8,0.8,0.8,0.8,0.8,0.8,0.8,0.8,0.8,0.8,0.8,0.8,0.8,0.8,0.8,0.8,0.8,0.8,0.8,0.8,0.8,0.8,0.8,0.8,0.8,0.8,0.8,0.8,0.8,0.8,0.8,0.8,0.8,0.8,0.8,0.8,0.8,0.8,0.8,0.8,0.8,0.8,0.8,0.8,0.8,0.8,0.8,0.8,0.8,0.8,0.8,0.8,0.8,0.8,0.8,0.8,0.8,0.8,0.8,0.8,0.8,0.8,0.8,0.8,0.8,0.8,0.8,0.8,0.8,0.8,0.8,0.8,0.8,0.8,0.8,0.8,0.8,0.8,0.8,0.8,0.8,0.8,0.8,0.8,0.8,0.8,0.8,0.8,0.8,0.8,0.8,0.8,0.8,0.8,0.8,0.8,0.8,0.8,0.8,0.8,0.8,0.8,0.8,0.8,0.8,0.8,0.8,0.8,0.8,0.8,0,0,0,0,0.8,0.8,0,0,0,0,0,0.7,0,0,0,0,0,0,0,0.7,0,0,0,0,0,0,0,0,0,0.7,0.7,0.7,0.7,0.7,0.7,0.7,0.7,0.7,0.7,0.7,0.7,0.7,0.7,0.7,0.7,0.7,0.7,0.7,0.7,0.7,0.7,0.7,0.7,0.7,0.7,0.7,0.7,0.7,0.7,0.7,0.7,0.7,0.7,0.7,0.7,0.7,0.7,0.7,0.7,0.7,0.7,0.7,0.7,0.7,0.7,0.7,0,0,0,0,0,0.7,0.7,0.7,0.7,0.7,0,0.7,0.7,0.7,0.7,0.7,0.7,0.7,0.7,0,0,0,0,0.6,0.6,0.6,0.6,0,0,0,0,0,0,0,0,0.6,0.6,0.6,0.6,0,0,0.786635,0.786757,0.786888,nan,nan,nan,nan,nan,0.789002,0.789379,0.789739,0.790046,0.790347,0.790629,0.790911,0.791188,0.791465,0.791738,0.792007,0.792265,0.792519,0.792771,0.793016,0.793253,0.793485,0.793714,0.79394,0.794164,0.794382,0.794599,0.794816,0.79503,0.795248,0.795468,0.79569,0.795912,0.796141,0.796372,0.79661,0.796853,0.797105,0.797359,0.797626,0.797897,0.798179,0.798463,0.79876,0.799061,0.799379,0.799695,0.800024,0.800354,0.800694,0.801032,0.801381,0.801732,0.802087,0.802442,0.802806,0.803168,0.803526,0.803888,0.804254,0.804617,0.80497,0.805328,0.805689,0.806043,0.806392,0.806743,0.807097,0.807444,0.807789,0.808136,0.808487,0.808831,0.809174,0.809518,0.80986,0.810213,0.810571,0.810933,0.811295,0.811654,0.812011,0.812369,0.812729,0.813091,0.813452,0.81381,0.814171,0.814535,0.8149,0.815256,0.815616,0.815978,0.816336,0.816681,0.817024,0.81736,0.817692,0.81802,0.818345,0.818654,0.818958,0.819255,0.819549,0.819836,0.820122,0.820398,0.820666,0.82092,0.821172,0.82142,0.821657,0.821885,0.822109,0.822329,0.822539,0.822742,0.822938,0.823129,0.823314,0.823498,0.823674,0.823844,0.824008,0.824168,0.824323,0.824474,0.824621,0.824766,0.824904,0.825041,0.825172,0.825302,0.825427,0.825552,0.825669,0.825785,0.825895,0.826006,0.826108,0.826209,0.826305,0.826399,0.826488,0.826576,0.826659,0.82674,0.826814,0.826886,0.826955,0.827022,0.827084,0.827143,0.827198,0.82725,0.827298,0.827345,0.827387,0.827427,0.827464,0.827499,0.827531,0.82756,0.827586,0.82761,0.827632,0.82765,0.827666,0.827679,0.827691,0.827699,0.827705,0.827709,0.82771,0.827708,0.827704,0.827698,0.827691,0.82768,0.827668,0.827652,0.827637,0.827616,0.827596,0.827572,0.827548,0.82752,0.827492,0.82746,0.827428,0.827393,0.827358,0.82732,0.827281,0.82724,0.827199,0.827157,0.827115,0.827072,0.827028,0.826983,0.826939,0.826895,0.826851,0.826807,0.826763,0.826718,0.826675,0.826632,0.826589,0.826546,0.826504,0.826463,0.826422,0.826382,0.82634,0.826299,0.826258,0.826217,0.826176,0.826135,0.826093,0.82605,0.826007,0.825964,0.825919,0.825874,0.825827,0.825779,0.82573,0.82568,0.825629,0.825578,0.825524,0.82547,0.825414,0.825358,0.825299,0.82524,0.825177,0.825113,0.825047,0.82498,0.824909,0.824836,0.82476,0.824681,0.824597,0.82451,0.82442,0.824327,0.824229,0.824129,0.824023,0.82391,0.823788,0.823636,0.823451,0.823229,nan,nan,nan,nan,nan,nan,nan,nan,nan,nan,nan,nan,nan,nan,nan,nan,nan,nan,nan,nan,nan,nan,nan,nan,nan,nan,nan,nan
